ply
format ascii 1.0
comment VCGLIB generated
element vertex 672
property float x
property float y
property float z
property float nx
property float ny
property float nz
property uchar red
property uchar green
property uchar blue
property uchar alpha
element face 0
property list uchar int vertex_indices
end_header
-9.748968 30.1788 15.85413 0.1322575 -0.1844236 0.9739075 49 255 209 255 
-9.705224 36.83199 18.13475 0.1658024 -0.3387371 0.926157 34 255 222 255 
-10.16485 34.20996 17.18232 0.1530093 -0.3614932 0.9197341 34 255 222 255 
-11.01646 35.62709 17.84474 0.06460453 -0.3537678 0.9330994 19 255 240 255 
-8.841599 35.41856 17.36982 0.2526732 -0.3664007 0.8954925 49 255 209 255 
-2.503261 -6.339128 0.6509892 0.01198007 -0.116018 0.9931749 104 255 150 255 
-2.502308 -8.809708 0.4050188 0.01104989 -0.08400377 0.9964042 104 255 150 255 
-3.751962 -7.569648 0.535052 0.01405172 -0.100107 0.9948775 83 255 169 255 
-1.255414 -7.578436 0.5038344 0.01036504 -0.09882239 0.9950511 120 254 129 255 
-7.508788 -6.324948 0.7495899 0.02691395 -0.1254648 0.991733 34 255 222 255 
-7.505036 -8.810328 0.4749823 0.01549098 -0.09441561 0.9954123 34 255 222 255 
-8.759796 -7.571784 0.6282545 0.02000676 -0.1161587 0.9930292 19 255 240 255 
-6.254112 -7.566668 0.5773553 0.01884437 -0.1049691 0.9942969 49 255 209 255 
-7.547297 -1.330318 1.627364 0.05652698 -0.3637189 0.9297921 34 255 222 255 
-7.515596 -3.832483 1.10564 0.04636265 -0.1633642 0.9854759 34 255 222 255 
-8.787364 -2.582853 1.44079 0.1120516 -0.2304417 0.9666132 19 255 240 255 
-6.259732 -2.591994 1.274464 0.02592445 -0.2129032 0.9767293 49 255 209 255 
37.49698 -6.246696 0.4890195 0.05273673 -0.06882683 0.9962338 162 0 0 255 
37.49487 -8.750524 0.3237782 0.02550021 -0.06005889 0.9978691 162 0 0 255 
36.22614 -7.509892 0.4503116 0.03622644 -0.07900198 0.996216 178 0 0 255 
38.76733 -7.489652 0.3549212 0.03893745 -0.05130577 0.9979237 141 1 0 255 
32.44613 -6.312068 0.7110158 0.0329502 -0.1267823 0.9913831 233 1 1 255 
32.45247 -8.790236 0.4250863 0.01328864 -0.09839257 0.995059 233 1 1 255 
31.19601 -7.566452 0.579077 0.01431102 -0.1226025 0.9923527 240 0 0 255 
33.70181 -7.536084 0.5298385 0.02777118 -0.1034394 0.994248 215 0 0 255 
32.52625 -1.340208 1.400395 0.1145592 -0.1305496 0.9848011 233 1 1 255 
32.46815 -3.830397 1.053049 0.06743168 -0.1410749 0.9876998 233 1 1 255 
31.24903 -2.627165 1.333353 0.0799297 -0.1640983 0.9832004 240 0 0 255 
33.74168 -2.55044 1.116137 0.09565755 -0.1171431 0.9884974 215 0 0 255 
17.41431 -6.416196 0.6403859 -0.01705356 -0.1464071 0.9890774 255 156 1 255 
17.45138 -8.844948 0.3568434 -0.007570209 -0.09125961 0.9957984 255 156 1 255 
16.17756 -7.62372 0.4679234 -0.01222878 -0.1105651 0.9937937 255 174 2 255 
18.69289 -7.62952 0.4954038 -0.01012263 -0.1198932 0.9927352 254 138 1 255 
12.3903 -6.396064 0.5565252 -0.01117425 -0.1152257 0.9932765 254 227 0 255 
12.44192 -8.836528 0.3229581 -0.004336729 -0.07795226 0.9969477 254 227 0 255 
11.17313 -7.611916 0.4220724 -0.003545361 -0.09273587 0.9956845 255 238 0 255 
13.66922 -7.616676 0.4394951 -0.01004177 -0.09959412 0.9949775 255 209 1 255 
12.15654 -1.556177 1.414063 -0.04456434 -0.2801483 0.9589218 254 227 0 255 
12.30204 -3.97326 0.8946714 -0.02538595 -0.1697365 0.9851626 254 227 0 255 
11.00162 -2.75991 1.091186 -0.01335226 -0.2059017 0.9784816 255 238 0 255 
13.48891 -2.778311 1.179515 -0.05450096 -0.2285354 0.9720089 255 209 1 255 
17.5 -26.25 0.00020186 6.689031e-06 -0.0001429615 1 255 156 1 255 
17.5 -28.75 3.5521e-05 1.655011e-06 -2.909781e-05 1 255 156 1 255 
16.25 -27.5 9.13522e-05 3.52903e-06 -6.871849e-05 1 255 174 2 255 
18.75 -27.5 8.32213e-05 3.433219e-06 -6.38107e-05 1 254 138 1 255 
12.5 -26.25 0.000238953 1.063023e-05 -0.0001619357 1 254 227 0 255 
12.5 -28.75 4.49209e-05 2.660699e-06 -3.529774e-05 1 254 227 0 255 
11.25 -27.5 0.000113849 6.728752e-06 -8.161698e-05 1 255 238 0 255 
13.75 -27.5 0.000100644 4.487669e-06 -7.385441e-05 1 255 209 1 255 
12.49949 -21.25107 0.003841161 8.092842e-05 -0.001958988 0.9999981 254 227 0 255 
12.4999 -23.75023 0.001046955 3.237028e-05 -0.0006147825 0.9999998 254 227 0 255 
11.24978 -22.50056 0.002123951 6.830818e-05 -0.001145446 0.9999993 255 238 0 255 
13.74974 -22.50053 0.001992762 4.069793e-05 -0.001096407 0.9999994 255 209 1 255 
37.5 -26.25 0.000386787 -0.0001715881 -0.0002573589 1 162 0 0 255 
37.5 -28.75 7.36596e-05 -4.155974e-05 -5.815926e-05 1 162 0 0 255 
36.25 -27.5 0.000102428 -4.24386e-05 -8.008405e-05 1 178 0 0 255 
38.75 -27.5 0.000322334 -0.0001744475 -0.0002111254 1 141 1 0 255 
32.5 -26.25 0.000126806 -3.974855e-06 -0.0001056993 1 233 1 1 255 
32.5 -28.75 1.73791e-05 -6.910864e-07 -1.729627e-05 1 233 1 1 255 
31.25 -27.5 4.8594e-05 6.305e-07 -4.352534e-05 1 240 0 0 255 
33.75 -27.5 5.36882e-05 -7.51581e-06 -4.741459e-05 1 215 0 0 255 
32.49947 -21.25032 0.003250896 -5.619037e-05 -0.001938884 0.9999982 233 1 1 255 
32.49993 -23.75004 0.000720962 -2.399442e-05 -0.0005085664 0.9999999 233 1 1 255 
31.24975 -22.50018 0.001560568 -1.927747e-06 -0.001004538 0.9999995 240 0 0 255 
33.74981 -22.50009 0.001656353 -0.0001071897 -0.001044994 0.9999995 215 0 0 255 
-22.56285 -6.443176 0.6382201 -0.026814 -0.1227562 0.9920745 0 108 255 255 
-22.54082 -8.88432 0.3834616 -0.01925525 -0.08697076 0.9960248 0 108 255 255 
-23.80434 -7.658712 0.4705629 -0.02476308 -0.09946983 0.9947324 0 91 254 255 
-21.29619 -7.660924 0.5278261 -0.02107022 -0.1072048 0.9940137 2 124 255 255 
-27.5601 -6.3916 0.4881179 -0.0307244 -0.09768662 0.9947429 2 34 255 255 
-27.54211 -8.850624 0.282975 -0.02035895 -0.06924867 0.9973917 2 34 255 255 
-28.79709 -7.603196 0.347478 -0.02357322 -0.07861762 0.9966261 0 21 252 255 
-26.30409 -7.636972 0.4078215 -0.0261586 -0.08862938 0.9957212 1 54 255 255 
-27.56999 -1.452951 1.111806 -0.06896751 -0.1514973 0.9860488 2 34 255 255 
-27.57467 -3.93182 0.7648992 -0.04524232 -0.1260412 0.9909928 2 34 255 255 
-28.8102 -2.654643 0.8746623 -0.04031178 -0.1321629 0.990408 0 21 252 255 
-26.34552 -2.74316 1.003148 -0.06921338 -0.1546741 0.9855381 1 54 255 255 
-22.5 -26.25005 0.000130611 -2.962341e-05 -0.0001170313 1 0 108 255 255 
-22.5 -28.75 1.59645e-05 -4.469285e-06 -1.668542e-05 1 0 108 255 255 
-23.75 -27.5 3.54107e-05 -9.904022e-06 -3.798114e-05 1 0 91 254 255 
-21.25 -27.5 6.26881e-05 -1.573742e-05 -6.060323e-05 1 2 124 255 255 
-27.5 -26.25 3.84691e-05 -1.252207e-05 -4.307756e-05 1 2 34 255 255 
-27.5 -28.75 3.52799e-06 -1.429043e-06 -4.372473e-06 1 2 34 255 255 
-28.75 -27.5 8.07941e-06 -3.138602e-06 -9.399547e-06 1 0 21 252 255 
-26.25 -27.5 1.79686e-05 -7.097167e-06 -2.026863e-05 1 1 54 255 255 
-27.50029 -21.25134 0.001660823 -0.0003163024 -0.001077153 0.9999994 2 34 255 255 
-27.5 -23.75019 0.00029619 -7.454862e-05 -0.0002534403 1 2 34 255 255 
-28.75006 -22.5004 0.000559452 -0.0001332935 -0.0004469682 0.9999999 0 21 252 255 
-26.2501 -22.50077 0.000931866 -0.0001656092 -0.0006599323 0.9999998 1 54 255 255 
-2.499983 -26.25015 0.000648121 3.389947e-05 -0.0004010729 0.9999999 104 255 150 255 
-2.499998 -28.75 0.000137451 5.805865e-06 -0.0001003354 1 104 255 150 255 
-3.749998 -27.50005 0.000322587 1.079257e-05 -0.00021686 1 83 255 169 255 
-1.24999 -27.50003 0.000287241 1.799112e-05 -0.0001911226 1 120 254 129 255 
-7.5 -26.25027 0.000722121 -7.340841e-06 -0.0004637153 0.9999999 34 255 222 255 
-7.5 -28.75 0.000143402 -4.41015e-06 -0.0001090592 1 34 255 222 255 
-8.75 -27.50009 0.000320512 -1.276188e-05 -0.0002266398 1 19 255 240 255 
-6.25 -27.50007 0.000335868 -2.51569e-07 -0.000230277 1 49 255 209 255 
-7.499964 -21.25342 0.009795486 0.0001732681 -0.004523432 0.9999897 34 255 222 255 
-7.499988 -23.75118 0.00292927 2.159961e-05 -0.001589458 0.9999987 34 255 222 255 
-8.75 -22.50225 0.005507886 -1.262394e-05 -0.002787574 0.9999961 19 255 240 255 
-6.249944 -22.50189 0.00536251 0.0001387515 -0.002645702 0.9999965 49 255 209 255 
-23.35942 33.01747 12.97162 -0.3384994 -0.09965456 0.9356747 0 108 255 255 
-23.41146 30.4701 12.39196 -0.2352927 -0.2593722 0.9366768 0 108 255 255 
-24.55977 31.79416 12.43553 -0.2310308 -0.1591135 0.9598477 0 91 254 255 
-22.23118 31.64673 13.10542 -0.3470502 -0.2462594 0.9049379 2 124 255 255 
-28.15244 33.15036 11.61911 -0.3033949 0.04976403 0.9515646 2 34 255 255 
-28.20825 30.64258 11.52016 -0.2448183 -0.1103535 0.9632685 2 34 255 255 
-29.38662 31.9079 11.22633 -0.3431177 -0.006968707 0.9392666 0 21 252 255 
-26.97514 31.86577 11.92641 -0.2247887 -0.071808 0.9717581 1 54 255 255 
-28.057 38.34595 10.54986 -0.2642591 0.2645726 0.9274527 2 34 255 255 
-28.07571 35.73331 11.25561 -0.3075542 0.2142771 0.9270899 2 34 255 255 
-29.28969 36.98685 10.52909 -0.3328903 0.2263774 0.9153892 0 21 252 255 
-26.83222 37.09678 11.24488 -0.2532587 0.2750103 0.9274856 1 54 255 255 
-22.66165 13.72058 5.826409 -0.2807972 -0.396699 0.8739467 0 108 255 255 
-22.58112 11.30427 4.851487 -0.2582787 -0.3442427 0.9026567 0 108 255 255 
-23.80293 12.53628 4.994761 -0.2419701 -0.3623826 0.9000719 0 91 254 255 
-21.4486 12.49506 5.692778 -0.295628 -0.3779668 0.8773513 2 124 255 255 
-27.49937 13.79127 4.748116 -0.1291892 -0.380028 0.9159088 2 34 255 255 
-27.44033 11.32431 3.904892 -0.1376963 -0.2970921 0.9448683 2 34 255 255 
-28.73075 12.55812 4.141928 -0.1156952 -0.3322678 0.9360624 0 21 252 255 
-26.22741 12.56058 4.472815 -0.1519805 -0.3272086 0.9326503 1 54 255 255 
-27.71285 18.62183 7.050591 -0.1501319 -0.4294613 0.8905186 2 34 255 255 
-27.57729 16.22193 5.868014 -0.126443 -0.4372654 0.8903995 2 34 255 255 
-28.87202 17.44247 6.308395 -0.1198426 -0.4285225 0.895548 0 21 252 255 
-26.44196 17.39376 6.66778 -0.1706571 -0.4467504 0.8782313 1 54 255 255 
-4.582816 12.89801 16.1793 -0.2803504 -0.3094862 0.9086374 104 255 150 255 
-4.214496 10.61702 15.15691 -0.2920712 -0.5343812 0.7931779 104 255 150 255 
-5.710132 11.8195 15.2494 -0.3976093 -0.4425018 0.8038029 83 255 169 255 
-3.097682 11.7258 16.10755 -0.1952696 -0.4044356 0.8934773 120 254 129 255 
-9.779452 13.14776 12.86177 -0.674118 -0.3750339 0.636329 34 255 222 255 
-9.308904 10.90355 11.9257 -0.6155331 -0.4590225 0.6406382 34 255 222 255 
-10.67917 12.12444 11.26545 -0.6680824 -0.3606678 0.6508339 19 255 240 255 
-8.298739 11.95107 13.58475 -0.5876223 -0.4335655 0.68317 49 255 209 255 
-10.90558 17.42203 14.27853 -0.5509177 -0.3874833 0.7391524 34 255 222 255 
-10.34582 15.30772 13.53901 -0.6447875 -0.3956899 0.6539714 34 255 222 255 
-11.79901 16.45555 12.82056 -0.6367156 -0.4754714 0.6070586 19 255 240 255 
-9.35042 16.29949 14.88065 -0.5344777 -0.3189597 0.7826867 49 255 209 255 
18.14137 28.94859 8.629536 0.265916 0.1924557 0.9445896 255 156 1 255 
18.39394 26.67769 9.008666 0.2806002 0.174735 0.9437856 255 156 1 255 
17.01693 27.84714 9.192811 0.2894198 0.2038785 0.9352378 255 174 2 255 
19.69699 27.78264 8.436846 0.2514487 0.1828676 0.9504383 254 138 1 255 
13.3235 29.38525 9.893038 0.2341759 0.2692087 0.9341779 254 227 0 255 
13.33338 27.11251 10.69898 0.3288348 0.3336828 0.8834724 254 227 0 255 
12.16048 28.45819 10.52278 0.2437009 0.3678539 0.8973815 255 238 0 255 
14.60671 28.05629 9.92649 0.298975 0.2719327 0.9146948 255 209 1 255 
11.85376 33.98373 9.646463 0.2569939 0.01102448 0.9663502 254 227 0 255 
12.7426 31.69486 9.548979 0.1955822 0.1098322 0.9745176 254 227 0 255 
11.0457 33.07873 9.802698 0.1797082 -0.02116455 0.9834923 255 238 0 255 
13.55126 32.65275 9.270164 0.256692 0.1046568 0.9608102 255 209 1 255 
16.72722 13.03382 7.959762 0.565922 -0.4142991 0.7128034 255 156 1 255 
16.74858 10.77052 6.733989 0.5410869 -0.3695881 0.7554004 255 156 1 255 
15.21256 11.93019 8.56222 0.5808867 -0.4219558 0.6960776 255 174 2 255 
18.23751 11.94438 6.201542 0.527759 -0.3709544 0.7641095 254 138 1 255 
10.76963 12.92756 13.25362 0.5831977 -0.393485 0.7106688 254 227 0 255 
10.90159 10.69342 11.53679 0.57599 -0.5227349 0.6284773 254 227 0 255 
9.479872 11.76754 13.61894 0.561593 -0.4449933 0.6975631 255 238 0 255 
12.22128 11.90398 11.28026 0.6007886 -0.4739119 0.6437862 255 209 1 255 
10.97036 17.02202 14.45708 0.4890502 -0.09073976 0.867523 254 227 0 255 
10.80463 15.00184 14.11139 0.5437191 -0.2547432 0.7996721 254 227 0 255 
9.595636 16.02468 15.08222 0.4804241 -0.1294788 0.867426 255 238 0 255 
12.21805 16.01703 13.45917 0.5582812 -0.2463745 0.7922257 255 209 1 255 
37.77102 13.16088 1.588973 0.1845995 -0.09461186 0.9782493 162 0 0 255 
37.69254 10.88029 1.403343 0.1534906 -0.07473124 0.9853203 162 0 0 255 
36.58392 11.96763 1.678242 0.1635405 -0.09985802 0.9814698 178 0 0 255 
38.86825 12.08518 1.302992 0.1668312 -0.06912476 0.9835594 141 1 0 255 
33.2503 12.92111 2.354865 0.1559677 -0.1697862 0.9730605 233 1 1 255 
32.99699 10.73111 2.085604 0.1351259 -0.1034556 0.9854126 233 1 1 255 
31.92245 11.81357 2.36827 0.1348461 -0.1461312 0.9800317 240 0 0 255 
34.27996 11.87152 2.03655 0.150511 -0.1253863 0.9806247 215 0 0 255 
34.10594 17.05385 3.190252 0.2759568 -0.2932211 0.915352 233 1 1 255 
33.61813 15.02503 2.733139 0.2043584 -0.236332 0.9499394 233 1 1 255 
32.75985 15.9738 3.203872 0.2279594 -0.3021201 0.9256123 240 0 0 255 
34.90424 16.14134 2.705164 0.2500761 -0.2311884 0.9402201 215 0 0 255 
28.38367 12.87197 3.09041 0.1657967 -0.2575921 0.9519232 254 19 0 255 
28.04067 10.70533 2.723262 0.1405371 -0.1189377 0.9829055 254 19 0 255 
26.87601 11.82066 3.096973 0.1801747 -0.2105193 0.9608427 254 36 0 255 
29.46884 11.8002 2.691987 0.1339697 -0.1689981 0.976469 255 8 0 255 
22.83579 12.98605 4.378743 0.2801556 -0.3179905 0.9057565 255 92 2 255 
22.5874 10.75755 3.875083 0.2656083 -0.1681004 0.9493127 255 92 2 255 
21.22555 11.93185 4.578561 0.3420125 -0.2721552 0.8994215 254 108 0 255 
24.12496 11.86119 3.706347 0.2331494 -0.2281953 0.9452874 255 74 0 255 
23.74494 16.87499 6.107801 0.3246463 -0.4843827 0.8123904 255 92 2 255 
23.24651 15.01459 5.163644 0.3159581 -0.4673772 0.8256689 255 92 2 255 
21.87545 15.98728 6.38125 0.3904133 -0.4911497 0.7786844 254 108 0 255 
25.04208 15.92604 5.072249 0.2667299 -0.4698714 0.8414726 255 74 0 255 
27.72145 3.416436 2.694407 0.1508813 -0.05387466 0.9870828 254 19 0 255 
27.6488 0.9132932 2.38541 0.1085536 -0.193063 0.975163 254 19 0 255 
26.42028 2.098308 2.739523 0.1100667 -0.1526631 0.98213 254 36 0 255 
28.94168 2.224281 2.403066 0.15908 -0.1052035 0.9816445 255 8 0 255 
22.49242 3.238056 3.355102 0.1238932 -0.1664825 0.9782301 255 92 2 255 
22.49435 0.7412072 2.709952 0.05511194 -0.3126853 0.9482566 255 92 2 255 
21.1609 1.955473 3.194742 0.0787915 -0.2841752 0.9555294 254 108 0 255 
23.8208 2.009063 2.973269 0.08820809 -0.2142826 0.9727807 255 74 0 255 
22.48328 8.345708 3.655898 0.2408886 -0.05065684 0.9692299 255 92 2 255 
22.47352 5.804672 3.590134 0.1936495 -0.04054021 0.9802328 255 92 2 255 
21.08974 7.072812 3.949113 0.2423928 -0.05840963 0.9684183 254 108 0 255 
23.83433 7.103412 3.327425 0.1955977 -0.002610455 0.9806808 255 74 0 255 
37.59818 3.750329 1.051007 0.1376639 -0.03934743 0.9896972 162 0 0 255 
37.56805 1.275592 0.9512683 0.1304754 -0.04680898 0.990346 162 0 0 255 
36.34301 2.502808 1.177893 0.1433968 -0.04612577 0.9885898 178 0 0 255 
38.82872 2.523022 0.8376895 0.1295372 -0.03888195 0.9908119 141 1 0 255 
32.67873 3.64131 1.820758 0.1716685 -0.04166703 0.9842733 233 1 1 255 
32.60421 1.156242 1.674339 0.1568478 -0.08992464 0.9835204 233 1 1 255 
31.4127 2.350189 1.976949 0.1730143 -0.073987 0.9821364 240 0 0 255 
33.87342 2.444904 1.558018 0.1611899 -0.05702689 0.9852745 215 0 0 255 
32.83986 8.45054 1.935778 0.1391781 -0.04818236 0.9890946 233 1 1 255 
32.74742 6.082124 1.874931 0.1580556 -0.02311691 0.9871596 233 1 1 255 
31.56315 7.250096 2.080076 0.1454338 -0.02033859 0.9891589 240 0 0 255 
34.00455 7.303061 1.718359 0.1470113 -0.03944253 0.9883481 215 0 0 255 
5.713004 12.78349 16.3076 0.290481 -0.2668763 0.9189112 240 254 17 255 
5.740916 10.46807 15.18361 0.3222177 -0.5240204 0.7884024 240 254 17 255 
4.472252 11.62511 16.21856 0.183533 -0.3907697 0.9020059 223 255 34 255 
6.955336 11.67 15.30781 0.4355657 -0.4174344 0.7975156 247 255 7 255 
0.6741428 12.78088 16.86078 -0.018325 -0.2735614 0.96168 167 255 88 255 
0.770018 10.46172 15.8851 -0.02027047 -0.5122105 0.8586208 167 255 88 255 
-0.540416 11.65741 16.41863 -0.06551345 -0.3862265 0.9200745 152 255 102 255 
1.976337 11.62068 16.45986 0.02741056 -0.3839976 0.9229271 187 255 70 255 
0.5481552 17.20169 17.28343 0.003030808 0.05461972 0.9985027 167 255 88 255 
0.594294 15.01572 17.25971 -0.007020865 -0.08677632 0.9962031 167 255 88 255 
-0.8281896 16.12578 17.26963 -0.05463003 -0.01994377 0.9983075 152 255 102 255 
1.93187 16.10137 17.27533 0.05299905 -0.005269627 0.9985807 187 255 70 255 
6.643167 3.2097 6.357305 0.305168 -0.7722524 0.557224 240 254 17 255 
7.086272 0.8031152 2.976977 0.2027954 -0.6907673 0.6940566 240 254 17 255 
5.614608 1.982472 5.136861 0.232934 -0.8010234 0.5514556 223 255 34 255 
8.111316 2.052305 4.044844 0.262455 -0.7373108 0.6224871 247 255 7 255 
1.652653 3.186407 7.617908 -0.03495185 -0.8544544 0.5183493 167 255 88 255 
2.157316 0.7991024 3.824719 -0.006116237 -0.8251638 0.5648605 167 255 88 255 
0.7107448 2.024686 5.673398 -0.06004388 -0.8427237 0.5349874 152 255 102 255 
3.110747 1.968918 5.727794 0.02820493 -0.8432997 0.5367031 187 255 70 255 
0.8869048 8.028748 14.03433 -0.0177297 -0.6628891 0.7485077 167 255 88 255 
1.12086 5.560632 11.44658 -0.07049867 -0.8026385 0.5922849 167 255 88 255 
-0.1690864 6.842876 12.79862 -0.09571033 -0.7357772 0.6704263 152 255 102 255 
2.182345 6.75452 12.82699 0.03563559 -0.7089841 0.7043236 187 255 70 255 
17.05757 3.214044 3.919162 0.04825787 -0.3759044 0.925401 255 156 1 255 
17.16979 0.7418584 2.808227 -0.0524786 -0.4191657 0.9063919 255 156 1 255 
15.76618 1.996727 3.334635 -0.0352282 -0.4568758 0.8888326 255 174 2 255 
18.46585 1.950848 3.358065 0.03164666 -0.3596976 0.9325321 254 138 1 255 
11.72244 3.32217 4.285912 0.1291515 -0.6612498 0.7389646 254 227 0 255 
11.9475 0.877614 2.357891 -0.03349007 -0.4912162 0.8703937 254 227 0 255 
10.57887 2.108547 3.321118 0.1176512 -0.659754 0.7422149 255 238 0 255 
13.11824 2.069287 3.199713 -0.02532049 -0.5522534 0.8332917 255 209 1 255 
11.19952 8.259104 9.129814 0.496693 -0.5794832 0.6461387 254 227 0 255 
11.47926 5.780992 6.70074 0.3471969 -0.6457392 0.6800553 254 227 0 255 
9.997124 6.986284 8.802632 0.4493826 -0.6441377 0.6189846 255 238 0 255 
12.70918 7.036456 7.131779 0.4031723 -0.5637255 0.7208785 255 209 1 255 
7.77294 30.34956 10.61275 0.1704537 0.3303773 0.9283299 240 254 17 255 
7.87962 27.99402 11.81548 0.1933477 0.5178348 0.8333449 240 254 17 255 
6.292456 29.35087 11.35702 0.1933076 0.4470122 0.8733912 223 255 34 255 
9.404224 28.94128 10.93602 0.186207 0.4369445 0.8800037 247 255 7 255 
1.014321 30.93165 12.23092 0.3358343 0.2228294 0.9151844 167 255 88 255 
1.158488 28.45839 13.12214 0.2292569 0.4167166 0.8796526 167 255 88 255 
-0.636804 29.75282 13.14727 0.3036674 0.2637247 0.915552 152 255 102 255 
2.895412 29.60539 12.08761 0.2557625 0.3975524 0.8812138 187 255 70 255 
-0.2108431 35.8684 13.45833 0.3539518 -0.4473175 0.8213557 167 255 88 255 
0.5095004 33.43156 12.26338 0.395299 -0.1290191 0.9094465 167 255 88 255 
-1.396053 34.7846 13.51395 0.4175473 -0.3096526 0.8542655 152 255 102 255 
1.777978 34.52213 11.99611 0.3329413 -0.3126686 0.8896002 187 255 70 255 
6.476992 21.40307 15.79848 0.2563582 0.2942871 0.920693 240 254 17 255 
6.159392 19.2759 16.38191 0.2434565 0.1531854 0.9577386 240 254 17 255 
4.958076 20.38387 16.41967 0.1738121 0.225421 0.9586318 223 255 34 255 
7.599508 20.28003 15.74495 0.3318985 0.2124396 0.9190826 247 255 7 255 
0.6367872 21.55034 16.52649 0.04108971 0.2833015 0.9581503 167 255 88 255 
0.5547592 19.37045 17.03276 0.01957692 0.1679715 0.9855975 167 255 88 255 
-0.9648248 20.46983 16.82732 -0.01047432 0.2080245 0.9780676 152 255 102 255 
2.094126 20.44019 16.74395 0.06870464 0.2299798 0.9707673 187 255 70 255 
1.024646 26.06823 14.43252 0.1404213 0.4765836 0.8678421 167 255 88 255 
0.8017968 23.77142 15.66992 0.08044957 0.4190403 0.9043966 167 255 88 255 
-0.8073208 24.93763 15.26134 0.0978858 0.420068 0.902198 152 255 102 255 
2.585602 24.86953 14.89315 0.1215184 0.4879893 0.8643493 187 255 70 255 
17.51708 20.57898 10.18595 0.4515246 0.09171519 0.8875325 255 156 1 255 
17.19413 18.76873 10.44203 0.5433133 -0.06418899 0.8370726 255 156 1 255 
15.64821 19.70864 11.39647 0.5320891 0.1371014 0.8355145 255 174 2 255 
19.12258 19.64164 9.390771 0.4322298 -0.07981826 0.8982241 254 138 1 255 
11.52346 20.99201 13.65109 0.497509 0.2490456 0.8309399 254 227 0 255 
11.21222 19.01836 14.30179 0.4765228 0.1152799 0.8715714 254 227 0 255 
10.09764 20.1127 14.68068 0.441401 0.1925227 0.8764132 255 238 0 255 
12.67253 19.89459 13.26536 0.5177106 0.207841 0.8299265 255 209 1 255 
12.76506 24.96425 11.73356 0.4318667 0.2787842 0.8577707 254 227 0 255 
12.03031 22.95458 12.73266 0.4948467 0.2497857 0.8323063 254 227 0 255 
11.14277 24.13834 12.86099 0.4337744 0.3162414 0.8437009 255 238 0 255 
13.66099 23.76764 11.56354 0.4687718 0.2055918 0.8590606 255 209 1 255 
-13.98626 13.45179 9.074247 -0.4728565 -0.3206762 0.8207152 0 242 255 255 
-13.78516 11.09548 8.359973 -0.4611197 -0.3135855 0.83008 0 242 255 255 
-14.93634 12.30821 8.214208 -0.395256 -0.3078935 0.865433 4 225 254 255 
-12.82139 12.25112 9.389237 -0.5615487 -0.3057829 0.7688693 0 251 254 255 
-18.23774 13.57097 7.379801 -0.328771 -0.3803215 0.864445 2 172 255 255 
-18.07477 11.21014 6.402539 -0.36033 -0.3759435 0.8537148 2 172 255 255 
-19.23218 12.4301 6.481258 -0.3362354 -0.3906786 0.8569224 1 154 255 255 
-17.08209 12.35887 7.316617 -0.3561444 -0.3603582 0.8621503 0 194 252 255 
-18.66724 18.19086 9.488262 -0.3677514 -0.4809518 0.7958921 2 172 255 255 
-18.39892 15.90831 8.369983 -0.3025636 -0.4040616 0.8632436 2 172 255 255 
-19.57194 17.1186 8.523229 -0.318633 -0.4131003 0.8531244 1 154 255 255 
-17.48037 16.9955 9.27512 -0.3300931 -0.4776201 0.8141976 0 194 252 255 
-13.30496 3.657484 4.761654 -0.2380929 -0.5209415 0.8197144 0 242 255 255 
-12.92206 1.132672 3.25597 -0.1316605 -0.4857978 0.8640984 0 242 255 255 
-14.27231 2.419021 3.718217 -0.2195217 -0.4869893 0.8453707 4 225 254 255 
-11.92531 2.366056 4.214379 -0.1445741 -0.5636665 0.8132518 0 251 254 255 
-17.7882 3.757217 3.368753 -0.2524342 -0.3952831 0.8831921 2 172 255 255 
-17.63693 1.173339 2.41236 -0.1215545 -0.2790588 0.9525496 2 172 255 255 
-18.87298 2.477157 2.620304 -0.13968 -0.2884105 0.9472639 1 154 255 255 
-16.55716 2.4619 3.110085 -0.2323035 -0.4060063 0.8838518 0 194 252 255 
-17.98823 8.792275 5.432874 -0.3473951 -0.3481194 0.8707064 2 172 255 255 
-17.92276 6.301524 4.438961 -0.3152443 -0.3684098 0.8745829 2 172 255 255 
-19.06383 7.572452 4.539821 -0.3007056 -0.3420891 0.8902534 1 154 255 255 
-16.8755 7.531232 5.382011 -0.3632306 -0.364424 0.8574723 0 194 252 255 
-3.080575 3.36839 6.907429 -0.1619582 -0.8050513 0.5706679 104 255 150 255 
-2.671986 0.946314 3.639191 -0.05707006 -0.7909422 0.6092237 104 255 150 255 
-4.119336 2.191746 5.055194 -0.1082382 -0.7843261 0.6108332 83 255 169 255 
-1.644738 2.113273 5.442524 -0.1072091 -0.8227372 0.5582203 120 254 129 255 
-8.310216 3.522692 5.838514 -0.1482314 -0.6920356 0.7064802 34 255 222 255 
-7.855648 1.075222 3.46491 -0.005321317 -0.6784694 0.7346095 34 255 222 255 
-9.412308 2.312195 4.516317 -0.08356763 -0.6563283 0.7498331 19 255 240 255 
-6.747856 2.258196 4.752273 -0.08397985 -0.7309052 0.6772925 49 255 209 255 
-8.977568 8.507029 10.28515 -0.4832179 -0.5736821 0.6613542 34 255 222 255 
-8.639704 6.016564 8.146654 -0.3137263 -0.6640593 0.678676 34 255 222 255 
-10.08778 7.316024 8.575078 -0.4105521 -0.5723263 0.7098519 19 255 240 255 
-7.519264 7.211096 9.979975 -0.3655981 -0.6819376 0.6334819 49 255 209 255 
-32.62832 13.78576 4.138136 -0.1346988 -0.3961619 0.9082466 0 0 246 255 
-32.59688 11.28913 3.139568 -0.1470181 -0.3208261 0.9356582 0 0 246 255 
-33.95471 12.53629 3.393753 -0.156634 -0.3714068 0.9151627 1 0 228 255 
-31.304 12.54614 3.810166 -0.1288119 -0.3613131 0.9235044 0 0 251 255 
-37.96754 13.81162 3.246218 -0.1342998 -0.4056976 0.9040869 0 0 176 255 
-38.1338 11.24469 2.381362 -0.09371542 -0.1820185 0.978819 0 0 176 255 
-39.40371 12.54384 2.553769 -0.07336966 -0.2902004 0.9541492 0 1 154 255 
-36.66901 12.53961 2.890022 -0.1517874 -0.3404106 0.9279446 1 0 194 255 
-37.77966 18.77415 5.455828 -0.1340537 -0.3665448 0.9206924 0 0 176 255 
-37.85723 16.31596 4.396174 -0.1369227 -0.4006203 0.9059556 0 0 176 255 
-39.12369 17.56205 4.765731 -0.1163237 -0.3929885 0.9121562 0 1 154 255 
-36.50823 17.53862 5.151026 -0.1568124 -0.3858623 0.9091315 1 0 194 255 
-32.44262 3.699441 1.84899 -0.04555996 -0.1402778 0.9890634 0 0 246 255 
-32.50112 1.194394 1.479182 0.001978683 -0.1695505 0.9855195 0 0 246 255 
-33.76249 2.457838 1.597314 -0.07326156 -0.1304312 0.9887469 1 0 228 255 
-31.1828 2.43664 1.673583 -0.01514558 -0.1810157 0.9833636 0 0 251 255 
-37.90332 3.875313 1.485459 -0.1487532 -0.213968 0.9654482 0 0 176 255 
-37.67336 1.274164 0.9568324 -0.1419386 -0.1614591 0.9766189 0 0 176 255 
-39.02197 2.537079 0.9640743 -0.1603277 -0.1775308 0.9709675 0 1 154 255 
-36.46692 2.536423 1.347914 -0.1102391 -0.1881513 0.9759337 1 0 194 255 
-38.22149 8.682236 2.042883 -0.09602293 -0.1061521 0.9897026 0 0 176 255 
-37.99664 6.262148 1.832788 -0.0936774 -0.1033062 0.9902285 0 0 176 255 
-39.61867 7.422048 1.757587 -0.1229646 -0.1035321 0.9869959 0 1 154 255 
-36.69388 7.460732 2.055658 -0.07630934 -0.1013339 0.9919215 1 0 194 255 
-22.47108 3.761556 2.5922 -0.07679947 -0.2225421 0.9718934 0 108 255 255 
-22.52638 1.097121 2.077706 -0.0479174 -0.1692163 0.9844134 0 108 255 255 
-23.71961 2.422197 2.232555 -0.07185496 -0.1810161 0.9808517 0 91 254 255 
-21.27036 2.456023 2.384935 -0.06358778 -0.2070605 0.9762595 2 124 255 255 
-27.35042 3.719563 2.16412 -0.08543556 -0.1982509 0.9764207 2 34 255 255 
-27.49775 1.101291 1.556854 -0.09571566 -0.2110564 0.9727763 2 34 255 255 
-28.65764 2.41461 1.793398 -0.06662656 -0.2194287 0.9733509 0 21 252 255 
-26.18077 2.409465 2.003409 -0.09926753 -0.1999518 0.9747642 1 54 255 255 
-27.35633 8.839856 3.205673 -0.1394149 -0.2376107 0.9613037 2 34 255 255 
-27.30529 6.307552 2.688357 -0.1063946 -0.1917903 0.9756519 2 34 255 255 
-28.56605 7.563084 2.780458 -0.1161001 -0.1843801 0.9759737 0 21 252 255 
-26.0959 7.59252 3.090759 -0.1281693 -0.2208408 0.9668516 1 54 255 255 
-32.93266 33.20347 9.464756 -0.482964 0.09397021 0.8705834 0 0 246 255 
-32.91231 30.7557 9.618469 -0.4654228 -0.002183062 0.8850858 0 0 246 255 
-34.09685 32.00035 8.90485 -0.476264 0.0633443 0.8770178 1 0 228 255 
-31.75356 31.95049 10.18999 -0.4452452 0.03947693 0.894538 0 0 251 255 
-37.62302 33.37264 7.054904 -0.3957582 0.1215047 0.9102814 0 0 176 255 
-37.6554 30.89445 7.292828 -0.3795857 0.06101075 0.9231427 0 0 176 255 
-38.83072 32.16018 6.706489 -0.3649895 0.1046933 0.9251065 0 1 154 255 
-36.45415 32.09307 7.721226 -0.4156192 0.08198813 0.9058359 1 0 194 255 
-37.51876 38.40931 6.201202 -0.4004281 0.179991 0.8984768 0 0 176 255 
-37.57696 35.88112 6.675282 -0.406211 0.1625119 0.8992122 0 0 176 255 
-38.70639 37.2023 5.936443 -0.3591143 0.1667252 0.9182808 0 1 154 255 
-36.39106 37.09218 7.003913 -0.4263755 0.1712437 0.8881889 1 0 194 255 
-32.73412 23.56356 8.176344 -0.2764884 -0.3335401 0.9012797 0 0 246 255 
-32.70431 21.13579 7.256452 -0.1982129 -0.3528346 0.9144503 0 0 246 255 
-33.96437 22.36435 7.41033 -0.228383 -0.31091 0.9225922 1 0 228 255 
-31.48721 22.32861 8.028464 -0.2269219 -0.383323 0.8953044 0 0 251 255 
-37.72277 23.59347 6.846527 -0.2101273 -0.174805 0.9619198 0 0 176 255 
-37.74002 21.1879 6.299007 -0.1433089 -0.2651771 0.9534903 0 0 176 255 
-39.00206 22.38392 6.390541 -0.1547876 -0.1809795 0.9712298 0 1 154 255 
-36.46983 22.3853 6.841497 -0.1960269 -0.2474192 0.9488716 1 0 194 255 
-37.67854 28.44555 7.347658 -0.3458714 -0.01912629 0.938087 0 0 176 255 
-37.70047 26.01425 7.195388 -0.2879416 -0.09743245 0.9526787 0 0 176 255 
-38.91991 27.23625 6.896398 -0.3024043 -0.02567118 0.952834 0 1 154 255 
-36.45975 27.21883 7.736062 -0.3505917 -0.0918077 0.9320176 1 0 194 255 
-23.36657 23.19035 10.12268 -0.2653448 -0.4145373 0.8704889 0 108 255 255 
-23.14314 20.84233 8.990764 -0.263924 -0.4209744 0.8678276 0 108 255 255 
-24.35907 22.09369 9.295717 -0.2108596 -0.4415848 0.8720901 0 91 254 255 
-22.19348 21.92382 9.903466 -0.340928 -0.4337316 0.8340534 2 124 255 255 
-27.9196 23.43582 9.337488 -0.1520591 -0.423595 0.8929979 2 34 255 255 
-27.8076 21.03414 8.179904 -0.1520019 -0.4266925 0.8915318 2 34 255 255 
-29.04704 22.27562 8.565671 -0.1737282 -0.4318489 0.8850566 0 21 252 255 
-26.65906 22.20494 8.920133 -0.1413408 -0.4327002 0.8903894 1 54 255 255 
-28.1934 28.20076 11.06383 -0.1972507 -0.2381401 0.9509898 2 34 255 255 
-28.08773 25.80711 10.33044 -0.1777128 -0.3443291 0.9218762 2 34 255 255 
-29.31764 27.0435 10.48172 -0.2403859 -0.2799548 0.9294299 0 21 252 255 
-26.98126 26.95364 10.91368 -0.1473186 -0.2958983 0.943791 1 54 255 255 
-12.5 -26.2503 0.000573373 -5.027042e-05 -0.0003961691 0.9999999 0 242 255 255 
-12.5 -28.75 0.000101119 -1.277071e-05 -8.574178e-05 1 0 242 255 255 
-13.75 -27.50008 0.000217892 -2.342877e-05 -0.0001675723 1 4 225 254 255 
-11.25 -27.5001 0.000277876 -2.114413e-05 -0.0002024967 1 0 251 254 255 
-17.5 -26.25017 0.000316272 -5.049474e-05 -0.0002475919 1 2 172 255 255 
-17.5 -28.75 4.75601e-05 -9.7297e-06 -4.66788e-05 1 2 172 255 255 
-18.75 -27.50001 0.000102486 -2.047255e-05 -9.088028e-05 1 1 154 255 255 
-16.25 -27.50004 0.000155463 -2.535349e-05 -0.0001291206 1 0 194 252 255 
-17.50044 -21.25412 0.00649321 -0.0006338977 -0.00347181 0.9999938 2 172 255 255 
-17.50007 -23.75114 0.001614451 -0.0002011883 -0.001030119 0.9999995 2 172 255 255 
-18.75019 -22.50208 0.002894461 -0.0003534457 -0.001726858 0.9999985 1 154 255 255 
-16.25018 -22.5024 0.00378102 -0.0003683575 -0.002149099 0.9999977 0 194 252 255 
-12.5 -36.25 0 -8.506899e-09 -1.331719e-07 1 0 242 255 255 
-12.5 -38.75 0 0 0 1 0 242 255 255 
-13.75 -37.5 0 0 0 1 4 225 254 255 
-11.25 -37.5 0 0 0 1 0 251 254 255 
-17.5 -36.25 0 0 0 1 2 172 255 255 
-17.5 -38.75 0 0 0 1 2 172 255 255 
-18.75 -37.5 0 0 0 1 1 154 255 255 
-16.25 -37.5 0 0 0 1 0 194 252 255 
-17.5 -31.25 5.26145e-06 -1.332642e-06 -5.849231e-06 1 2 172 255 255 
-17.5 -33.75 4.07387e-07 -1.420635e-07 -5.877114e-07 1 2 172 255 255 
-18.75 -32.5 1.1116e-06 -3.510635e-07 -1.404902e-06 1 1 154 255 255 
-16.25 -32.5 2.07926e-06 -5.426087e-07 -2.462643e-06 1 0 194 252 255 
-2.5 -36.25 2.72504e-07 -6.661918e-10 -3.751438e-07 1 104 255 150 255 
-2.5 -38.75 0 0 0 1 104 255 150 255 
-3.75 -37.5 0 -1.4908e-09 -1.05432e-07 1 83 255 169 255 
-1.25 -37.5 0 4.420985e-10 -1.076753e-07 1 120 254 129 255 
-7.5 -36.25 2.04932e-07 -2.66965e-08 -2.987307e-07 1 34 255 222 255 
-7.5 -38.75 0 0 0 1 34 255 222 255 
-8.75 -37.5 0 -3.1694e-09 -6.65918e-08 1 19 255 240 255 
-6.25 -37.5 0 -2.618701e-09 -8.982889e-08 1 49 255 209 255 
-7.5 -31.25 2.21304e-05 -1.226166e-06 -2.009342e-05 1 34 255 222 255 
-7.5 -33.75 2.5425e-06 -2.290988e-07 -2.79668e-06 1 34 255 222 255 
-8.75 -32.5 7.10732e-06 -7.194259e-07 -7.186014e-06 1 19 255 240 255 
-6.25 -32.5 8.34409e-06 -3.668952e-07 -8.130753e-06 1 49 255 209 255 
-32.5 -26.25 7.17154e-06 -3.184158e-06 -8.89445e-06 1 0 0 246 255 
-32.5 -28.75 4.35769e-07 -2.646471e-07 -7.058248e-07 1 0 0 246 255 
-33.75 -27.5 1.05856e-06 -6.007481e-07 -1.548969e-06 1 1 0 228 255 
-31.25 -27.5 3.16766e-06 -1.465472e-06 -4.105868e-06 1 0 0 251 255 
-37.5 -26.25 7.03424e-07 -3.3012e-07 -1.136538e-06 1 0 0 176 255 
-37.5 -28.75 0 -1.45947e-08 -4.37841e-08 1 0 0 176 255 
-38.75 -27.5 0 6.90675e-08 -2.440819e-07 1 0 1 154 255 
-36.25 -27.5 2.82491e-07 -1.84505e-07 -5.020062e-07 1 1 0 194 255 
-37.5 -21.25002 0.000126483 -5.449176e-05 -0.0001348834 1 0 0 176 255 
-37.5 -23.75 1.17633e-05 -5.160983e-06 -1.470771e-05 1 0 0 176 255 
-38.75 -22.5 2.73998e-05 -6.858525e-06 -3.36018e-05 1 0 1 154 255 
-36.25 -22.5 6.67168e-05 -3.181354e-05 -7.769727e-05 1 1 0 194 255 
-32.5 -36.25 0 0 0 1 0 0 246 255 
-32.5 -38.75 0 0 0 1 0 0 246 255 
-33.75 -37.5 0 0 0 1 1 0 228 255 
-31.25 -37.5 0 0 0 1 0 0 251 255 
-37.5 -36.25 0 0 0 1 0 0 176 255 
-37.5 -38.75 0 0 0 1 0 0 176 255 
-38.75 -37.5 0 0 0 1 0 1 154 255 
-36.25 -37.5 0 0 0 1 1 0 194 255 
-37.5 -31.25 0 0 0 1 0 0 176 255 
-37.5 -33.75 0 0 0 1 0 0 176 255 
-38.75 -32.5 0 0 0 1 0 1 154 255 
-36.25 -32.5 0 0 0 1 1 0 194 255 
-22.5 -36.25 0 0 0 1 0 108 255 255 
-22.5 -38.75 0 0 0 1 0 108 255 255 
-23.75 -37.5 0 0 0 1 0 91 254 255 
-21.25 -37.5 0 0 0 1 2 124 255 255 
-27.5 -36.25 0 0 0 1 2 34 255 255 
-27.5 -38.75 0 0 0 1 2 34 255 255 
-28.75 -37.5 0 0 0 1 0 21 252 255 
-26.25 -37.5 0 0 0 1 1 54 255 255 
-27.5 -31.25 2.17385e-07 -1.093197e-07 -3.576695e-07 1 2 34 255 255 
-27.5 -33.75 0 0 0 1 2 34 255 255 
-28.75 -32.5 0 -1.23292e-08 -3.69876e-08 1 0 21 252 255 
-26.25 -32.5 0 -5.60789e-08 -1.447267e-07 1 1 54 255 255 
-32.5372 -6.310848 0.3639134 -0.02533032 -0.08381484 0.9961594 0 0 246 255 
-32.52947 -8.799149 0.1951445 -0.01707327 -0.05341465 0.9984264 0 0 246 255 
-33.7803 -7.54472 0.243609 -0.02314971 -0.06297204 0.9977468 1 0 228 255 
-31.28809 -7.569568 0.2950115 -0.02096981 -0.07125812 0.9972375 0 0 251 255 
-37.52545 -6.272888 0.1994282 -0.04211001 -0.05167054 0.997776 0 0 176 255 
-37.51737 -8.77182 0.09972602 -0.02268775 -0.0298092 0.9992981 0 0 176 255 
-38.76825 -7.516656 0.1034091 -0.03102144 -0.02980894 0.9990742 0 1 154 255 
-36.27411 -7.529268 0.1802921 -0.02918888 -0.04881655 0.9983812 1 0 194 255 
-37.57657 -1.256816 0.6169334 -0.1078009 -0.1185523 0.9870787 0 0 176 255 
-37.54009 -3.768072 0.3658159 -0.07065637 -0.08251405 0.994082 0 0 176 255 
-38.81335 -2.508245 0.3665838 -0.08719311 -0.08202414 0.9928089 0 1 154 255 
-36.29611 -2.5215 0.5893111 -0.0814577 -0.119272 0.9895145 1 0 194 255 
-32.5033 -16.25703 0.0123288 -0.00184575 -0.006288187 0.9999786 0 0 246 255 
-32.50082 -18.75204 0.003119289 -0.0006028271 -0.001992942 0.9999979 0 0 246 255 
-33.75142 -17.50311 0.005187928 -0.0009786412 -0.003072394 0.9999948 1 0 228 255 
-31.25208 -17.505 0.007833898 -0.001232034 -0.004298079 0.99999 0 0 251 255 
-37.50127 -16.25262 0.004543304 -0.001370271 -0.002668138 0.9999955 0 0 176 255 
-37.50019 -18.75058 0.000914005 -0.0003199459 -0.0006503991 0.9999998 0 0 176 255 
-38.75038 -17.50089 0.001407325 -0.0004532737 -0.0009204978 0.9999995 0 1 154 255 
-36.25081 -17.50183 0.003041744 -0.0008080732 -0.001951856 0.9999978 1 0 194 255 
-37.51006 -11.26544 0.04427969 -0.01083236 -0.0159102 0.9998147 0 0 176 255 
-37.50434 -13.75771 0.01625126 -0.004368521 -0.007390419 0.9999632 0 0 176 255 
-38.75509 -12.50799 0.01905769 -0.006620714 -0.007857879 0.9999472 0 1 154 255 
-36.25867 -12.5145 0.03623044 -0.006934423 -0.01419837 0.9998752 1 0 194 255 
-22.50528 -16.27339 0.03973037 -0.003598774 -0.01620958 0.9998622 0 108 255 255 
-22.5018 -18.75919 0.01335215 -0.001492749 -0.006569111 0.9999774 0 108 255 255 
-23.75323 -17.51377 0.02077925 -0.002256363 -0.00952955 0.9999521 0 91 254 255 
-21.25307 -17.51615 0.0265882 -0.00246387 -0.01161975 0.9999295 2 124 255 255 
-27.50508 -16.26513 0.02366369 -0.002846675 -0.01066419 0.9999391 2 34 255 255 
-27.50155 -18.75523 0.007084667 -0.001057715 -0.003899845 0.9999919 2 34 255 255 
-28.75269 -17.50766 0.01127165 -0.001596517 -0.005775892 0.9999821 0 21 252 255 
-26.2531 -17.51078 0.01561516 -0.001956373 -0.007537805 0.9999697 1 54 255 255 
-27.5254 -11.31371 0.1452468 -0.01221786 -0.04361799 0.9989735 2 34 255 255 
-27.51274 -13.7844 0.06416749 -0.006398065 -0.02365587 0.9996997 2 34 255 255 
-28.76758 -12.54165 0.08791983 -0.008429317 -0.02992944 0.9995165 0 21 252 255 
-26.26896 -12.55382 0.1099035 -0.00945183 -0.03570745 0.9993176 1 54 255 255 
27.5 -26.25 0.00014218 5.601698e-06 -0.0001125501 1 254 19 0 255 
27.5 -28.75 2.11055e-05 1.301089e-06 -1.944569e-05 1 254 19 0 255 
26.25 -27.5 6.00861e-05 2.899399e-06 -5.030948e-05 1 254 36 0 255 
28.75 -27.5 5.34522e-05 2.55823e-06 -4.614361e-05 1 255 8 0 255 
22.5 -26.25 0.000170213 6.465873e-06 -0.0001265699 1 255 92 2 255 
22.5 -28.75 2.79127e-05 1.485962e-06 -2.410864e-05 1 255 92 2 255 
21.25 -27.5 7.52116e-05 3.342971e-06 -5.909095e-05 1 254 108 0 255 
23.75 -27.5 6.72709e-05 3.15601e-06 -5.433927e-05 1 255 74 0 255 
22.49957 -21.25089 0.003412902 2.869537e-05 -0.00189097 0.9999982 255 92 2 255 
22.49994 -23.75018 0.000840673 1.735056e-05 -0.0005389188 0.9999999 255 92 2 255 
21.2498 -22.50046 0.00176835 2.663747e-05 -0.001035933 0.9999995 254 108 0 255 
23.74981 -22.50041 0.001706004 2.182256e-05 -0.00102304 0.9999995 255 74 0 255 
27.5 -36.25 0 0 0 1 254 19 0 255 
27.5 -38.75 0 0 0 1 254 19 0 255 
26.25 -37.5 0 0 0 1 254 36 0 255 
28.75 -37.5 0 0 0 1 255 8 0 255 
22.5 -36.25 0 0 0 1 255 92 2 255 
22.5 -38.75 0 0 0 1 255 92 2 255 
21.25 -37.5 0 0 0 1 254 108 0 255 
23.75 -37.5 0 0 0 1 255 74 0 255 
22.5 -31.25 3.57823e-06 2.980599e-07 -3.708524e-06 1 255 92 2 255 
22.5 -33.75 3.4525e-07 3.696029e-08 -4.676879e-07 1 255 92 2 255 
21.25 -32.5 1.28262e-06 1.087423e-07 -1.418849e-06 1 254 108 0 255 
23.75 -32.5 1.03748e-06 1.086921e-07 -1.186033e-06 1 255 74 0 255 
37.5 -36.25 0 -9.32805e-08 -1.345015e-07 1 162 0 0 255 
37.5 -38.75 0 0 0 1 162 0 0 255 
36.25 -37.5 0 0 0 1 178 0 0 255 
38.75 -37.5 0 -8.75152e-08 -9.44168e-08 1 141 1 0 255 
32.5 -36.25 0 0 0 1 233 1 1 255 
32.5 -38.75 0 0 0 1 233 1 1 255 
31.25 -37.5 0 0 0 1 240 0 0 255 
33.75 -37.5 0 0 0 1 215 0 0 255 
32.5 -31.25 1.77588e-06 -6.228473e-08 -2.137096e-06 1 233 1 1 255 
32.5 -33.75 1.29061e-07 -2.7325e-09 -2.044755e-07 1 233 1 1 255 
31.25 -32.5 5.18741e-07 3.410311e-08 -6.749935e-07 1 240 0 0 255 
33.75 -32.5 5.77404e-07 -1.385146e-07 -7.457938e-07 1 215 0 0 255 
7.5 -26.25001 0.000317417 2.29554e-05 -0.0002040551 1 240 254 17 255 
7.5 -28.75 6.41434e-05 5.58234e-06 -4.760495e-05 1 240 254 17 255 
6.25 -27.5 0.000161471 1.344829e-05 -0.000109727 1 223 255 34 255 
8.75 -27.5 0.000133647 9.831486e-06 -9.304392e-05 1 247 255 7 255 
2.500005 -26.25006 0.000463086 3.764033e-05 -0.0002803465 1 167 255 88 255 
2.5 -28.75 9.87128e-05 9.947815e-06 -7.158392e-05 1 167 255 88 255 
1.250005 -27.50001 0.000242212 1.94527e-05 -0.0001613226 1 152 255 102 255 
3.75 -27.5 0.000198086 1.932675e-05 -0.000133745 1 187 255 70 255 
2.500028 -21.25147 0.005998313 0.00037932 -0.00279006 0.9999961 167 255 88 255 
2.500031 -23.75041 0.001809835 0.0001301554 -0.0009664575 0.9999995 167 255 88 255 
1.250074 -22.5009 0.003651678 0.0002478265 -0.001798709 0.9999984 152 255 102 255 
3.750002 -22.50074 0.003097653 0.0002029322 -0.001554716 0.9999988 187 255 70 255 
7.5 -36.25 1.27106e-07 5.13307e-08 -1.640571e-07 1 240 254 17 255 
7.5 -38.75 0 0 0 1 240 254 17 255 
6.25 -37.5 0 2.244799e-09 -6.154639e-08 1 223 255 34 255 
8.75 -37.5 0 1.27106e-08 -1.27106e-08 1 247 255 7 255 
2.5 -36.25 2.19042e-07 2.11529e-08 -2.959073e-07 1 167 255 88 255 
2.5 -38.75 0 0 0 1 167 255 88 255 
1.25 -37.5 0 1.664098e-09 -9.779932e-08 1 152 255 102 255 
3.75 -37.5 0 2.4272e-09 -8.033519e-08 1 187 255 70 255 
2.5 -31.25 1.69456e-05 1.621141e-06 -1.415736e-05 1 167 255 88 255 
2.5 -33.75 2.2524e-06 2.214778e-07 -2.298324e-06 1 167 255 88 255 
1.25 -32.5 7.09276e-06 6.89066e-07 -6.454072e-06 1 152 255 102 255 
3.75 -32.5 5.70291e-06 5.080169e-07 -5.186845e-06 1 187 255 70 255 
17.5 -36.25 0 1.723499e-09 -6.22967e-08 1 255 156 1 255 
17.5 -38.75 0 0 0 1 255 156 1 255 
16.25 -37.5 0 0 0 1 255 174 2 255 
18.75 -37.5 0 0 0 1 254 138 1 255 
12.5 -36.25 0 3.5365e-09 -9.94873e-08 1 254 227 0 255 
12.5 -38.75 0 0 0 1 254 227 0 255 
11.25 -37.5 0 0 0 1 255 238 0 255 
13.75 -37.5 0 0 0 1 255 209 1 255 
12.5 -31.25 6.76086e-06 5.547271e-07 -6.124786e-06 1 254 227 0 255 
12.5 -33.75 7.86982e-07 8.6756e-08 -8.731752e-07 1 254 227 0 255 
11.25 -32.5 2.67053e-06 2.741545e-07 -2.654084e-06 1 255 238 0 255 
13.75 -32.5 2.16286e-06 1.930887e-07 -2.209176e-06 1 255 209 1 255 
7.429304 -6.390668 0.5509893 0.006621162 -0.1113988 0.9937537 240 254 17 255 
7.46088 -8.83228 0.3245031 0.004334304 -0.07577785 0.9971153 240 254 17 255 
6.206008 -7.606784 0.4353251 0.007042949 -0.09361088 0.995584 223 255 34 255 
8.687595 -7.60982 0.421868 0.002800939 -0.09146365 0.9958045 247 255 7 255 
2.473666 -6.37246 0.5987465 0.009525097 -0.1178655 0.9929839 167 255 88 255 
2.485027 -8.823 0.3582408 0.007890888 -0.08041446 0.9967303 167 255 88 255 
1.235833 -7.589836 0.479009 0.008950491 -0.09829488 0.9951171 152 255 102 255 
3.722768 -7.600076 0.4560782 0.00860902 -0.09646085 0.9952996 187 255 70 255 
2.423208 -1.571278 1.595389 0.01126419 -0.3851143 0.9228002 167 255 88 255 
2.457506 -3.946852 0.954591 0.01013916 -0.18746 0.9822199 167 255 88 255 
1.21022 -2.729094 1.230983 -0.0006385299 -0.2584951 0.9660124 152 255 102 255 
3.676152 -2.762346 1.1962 0.01488752 -0.2560703 0.9665436 187 255 70 255 
7.496768 -16.25918 0.03599315 0.001061269 -0.01334671 0.9999104 240 254 17 255 
7.498952 -18.75352 0.01366519 0.0005104261 -0.005813973 0.999983 240 254 17 255 
6.248504 -17.50584 0.02358174 0.000913188 -0.00925372 0.9999568 223 255 34 255 
8.747756 -17.50574 0.02171528 0.00058636 -0.00870495 0.999962 247 255 7 255 
2.499115 -16.25948 0.04359573 0.00198921 -0.01540818 0.9998794 167 255 88 255 
2.499847 -18.75396 0.01725673 0.000932421 -0.007007027 0.999975 167 255 88 255 
1.249871 -17.50648 0.029679 0.001537445 -0.01109858 0.9999372 152 255 102 255 
3.749254 -17.50604 0.02624762 0.001228979 -0.01004577 0.9999488 187 255 70 255 
2.492702 -11.29044 0.1970282 0.005767628 -0.05167558 0.9986473 167 255 88 255 
2.497082 -13.77053 0.09796744 0.003629868 -0.0299745 0.9995441 167 255 88 255 
1.246848 -12.52868 0.1469587 0.005123214 -0.04101142 0.9991456 152 255 102 255 
3.743391 -12.5297 0.1353006 0.004175591 -0.03884171 0.9992367 187 255 70 255 
17.49521 -16.25924 0.03333669 -0.0001796226 -0.01334635 0.999911 255 156 1 255 
17.49829 -18.7533 0.01175552 1.712128e-05 -0.005424018 0.9999853 255 156 1 255 
16.24696 -17.50566 0.02012461 -4.685489e-06 -0.008550402 0.9999635 255 174 2 255 
18.74722 -17.50558 0.0202102 -5.099068e-05 -0.008720088 0.999962 254 138 1 255 
12.495 -16.25918 0.03304636 0.0001624284 -0.01276376 0.9999186 254 227 0 255 
12.49828 -18.7534 0.01209229 0.0001454185 -0.005372677 0.9999856 254 227 0 255 
11.24718 -17.50569 0.0206356 0.000283788 -0.008445363 0.9999643 255 238 0 255 
13.74691 -17.50568 0.02018791 7.35583e-05 -0.008418141 0.9999646 255 209 1 255 
12.47146 -11.29609 0.1697245 -0.001255214 -0.04831122 0.9988316 254 227 0 255 
12.48732 -13.77187 0.07959938 -6.004881e-05 -0.02657297 0.9996469 254 227 0 255 
11.2316 -12.5319 0.117768 0.0001744445 -0.03592456 0.9993545 255 238 0 255 
13.7304 -12.53266 0.1190673 -0.001093927 -0.03705139 0.9993128 255 209 1 255 
27.45977 -6.385156 0.7654201 -0.005353248 -0.1605105 0.9870197 254 19 0 255 
27.46177 -8.828728 0.4337235 -0.005993456 -0.1097424 0.993942 254 19 0 255 
26.21247 -7.613272 0.5719262 -0.009794193 -0.133448 0.9910074 254 36 0 255 
28.70311 -7.594012 0.5906763 -0.0003846201 -0.132718 0.9911538 255 8 0 255 
22.45737 -6.418336 0.7013838 -0.01082286 -0.1573373 0.9874856 255 92 2 255 
22.46835 -8.845432 0.3914803 -0.007417735 -0.1008892 0.99487 255 92 2 255 
21.20732 -7.630312 0.5180469 -0.008819818 -0.1249273 0.9921267 254 108 0 255 
23.71479 -7.624764 0.5428703 -0.010467 -0.1288699 0.9916063 255 74 0 255 
22.47128 -1.651442 1.866707 0.008949723 -0.3117339 0.9501273 255 92 2 255 
22.45625 -4.022852 1.17324 -0.008331963 -0.2371652 0.9714336 255 92 2 255 
21.18113 -2.847054 1.488082 -0.001740175 -0.287747 0.9577049 254 108 0 255 
23.73736 -2.820454 1.502438 -0.003328972 -0.2720119 0.9622881 255 74 0 255 
27.49469 -16.25698 0.03655874 -0.0003911529 -0.01567754 0.999877 254 19 0 255 
27.49816 -18.75234 0.01192682 -4.672393e-05 -0.005943252 0.9999824 254 19 0 255 
26.24706 -17.50447 0.0211088 -0.0001926359 -0.009661809 0.9999533 254 36 0 255 
28.74653 -17.50371 0.0214883 -0.0001211435 -0.009985827 0.9999502 255 8 0 255 
22.49591 -16.25871 0.03448837 -0.0003328149 -0.01429293 0.9998978 255 92 2 255 
22.49851 -18.75302 0.01172667 -1.431708e-05 -0.005621461 0.9999842 255 92 2 255 
21.24745 -17.50538 0.02038103 -0.000101558 -0.008949169 0.9999599 254 108 0 255 
23.74743 -17.50502 0.02067565 -0.0001606303 -0.009268756 0.999957 255 74 0 255 
22.4809 -11.2987 0.1977987 -0.003659405 -0.05991067 0.998197 255 92 2 255 
22.49039 -13.772 0.08835226 -0.00137496 -0.0315238 0.9995021 255 92 2 255 
21.23577 -12.53384 0.1317132 -0.002090059 -0.04305508 0.9990705 254 108 0 255 
23.73591 -12.53238 0.1375615 -0.002604987 -0.04538631 0.9989661 255 74 0 255 
37.50006 -16.2502 0.04368454 -0.003731271 -0.01559059 0.9998715 162 0 0 255 
37.50024 -18.75003 0.01701039 -0.002753698 -0.007136037 0.9999708 162 0 0 255 
36.2487 -17.50065 0.02455031 -0.001916706 -0.01035258 0.9999446 178 0 0 255 
38.75222 -17.49945 0.0332908 -0.005543288 -0.01143721 0.9999192 141 1 0 255 
32.49394 -16.25384 0.03742933 -6.551841e-05 -0.0160836 0.9998707 233 1 1 255 
32.49798 -18.75126 0.01207751 -0.0001264584 -0.006139427 0.9999812 233 1 1 255 
31.24627 -17.50277 0.02166169 -6.001045e-05 -0.01014313 0.9999486 240 0 0 255 
33.74683 -17.50172 0.02204614 -0.0004082134 -0.0101343 0.9999486 215 0 0 255 
32.46994 -11.2718 0.2210038 0.004153473 -0.06452386 0.9979076 233 1 1 255 
32.48504 -13.75994 0.09862726 0.0007741537 -0.03543115 0.9993718 233 1 1 255 
31.22766 -12.51861 0.1520634 0.0008516152 -0.05006136 0.9987458 240 0 0 255 
33.73039 -12.51139 0.1480183 0.002830765 -0.04687041 0.998897 215 0 0 255 
-12.52334 -6.35104 0.8492335 -0.002104966 -0.1574809 0.9875198 0 242 255 255 
-12.51471 -8.833836 0.5223565 -0.0004032356 -0.1081067 0.9941393 0 242 255 255 
-13.77108 -7.603592 0.6628935 -0.008851124 -0.1273094 0.9918236 4 225 254 255 
-11.26591 -7.584712 0.6663467 0.009112169 -0.1284111 0.9916792 0 251 254 255 
-17.53492 -6.40542 0.7558233 -0.02025208 -0.1326982 0.9909496 2 172 255 255 
-17.52532 -8.86836 0.4707204 -0.01482945 -0.09855687 0.995021 2 172 255 255 
-18.78499 -7.647352 0.5787906 -0.01843837 -0.1124525 0.993486 1 154 255 255 
-16.27656 -7.62606 0.6257721 -0.01638031 -0.1184818 0.9928211 0 194 252 255 
-17.54234 -1.424875 1.750268 -0.002329753 -0.2498652 0.9682779 2 172 255 255 
-17.54015 -3.933482 1.138162 -0.02203066 -0.1836367 0.9827473 2 172 255 255 
-18.79492 -2.714903 1.370688 -0.02190618 -0.2410234 0.9702721 1 154 255 255 
-16.29183 -2.656746 1.425603 -0.03652164 -0.2251095 0.9736488 0 194 252 255 
-12.50213 -16.27263 0.07028001 -0.001129179 -0.02453762 0.9996983 0 242 255 255 
-12.50082 -18.76087 0.0276345 -0.000759112 -0.01147074 0.999934 0 242 255 255 
-13.75167 -17.51682 0.04342997 -0.00148124 -0.0167883 0.999858 4 225 254 255 
-11.25103 -17.51506 0.04579168 -0.0003535007 -0.01714662 0.999853 0 251 254 255 
-17.50395 -16.27615 0.05778563 -0.003455156 -0.0215875 0.999761 2 172 255 255 
-17.50149 -18.76152 0.0212596 -0.001626569 -0.009528588 0.9999533 2 172 255 255 
-18.75272 -17.51752 0.03278326 -0.002520818 -0.01369124 0.9999031 1 154 255 255 
-16.25224 -17.51773 0.03873777 -0.00222723 -0.01551448 0.9998772 0 194 252 255 
-17.51592 -11.33157 0.2662984 -0.01007076 -0.06765804 0.9976578 2 172 255 255 
-17.50863 -13.79979 0.1333953 -0.006286338 -0.0412559 0.9991288 2 172 255 255 
-18.76347 -12.56682 0.1809977 -0.008808682 -0.05164877 0.9986265 1 154 255 255 
-16.2605 -12.56199 0.2013199 -0.006956808 -0.05552148 0.9984333 0 194 252 255 
-2.499671 -16.26136 0.0553925 0.002681903 -0.0186944 0.9998217 104 255 150 255 
-2.499701 -18.75539 0.02268928 0.001196001 -0.008875078 0.9999599 104 255 150 255 
-3.749664 -17.5087 0.03829908 0.001824231 -0.01383849 0.9999026 83 255 169 255 
-1.249742 -17.50732 0.03380382 0.001768695 -0.01236567 0.999922 120 254 129 255 
-7.500308 -16.26626 0.06780302 0.001967006 -0.02268616 0.9997408 34 255 222 255 
-7.500028 -18.75811 0.02776515 0.00068424 -0.01093109 0.99994 34 255 222 255 
-8.750404 -17.51284 0.04535371 0.0007581457 -0.01657988 0.9998623 19 255 240 255 
