ply
format ascii 1.0
comment VCGLIB generated
element vertex 619
property float x
property float y
property float z
property float nx
property float ny
property float nz
property uchar red
property uchar green
property uchar blue
property uchar alpha
element face 0
property list uchar int vertex_indices
end_header
-0.174206 -0.0274939 -0.0203147 -0.4640951 0.8844937 -0.04781973 170 85 255 255 
-0.192353 -0.0397338 -0.00141151 -0.6711252 0.73969 -0.04949468 170 85 255 255 
-0.170447 -0.0249801 0.0063437 -0.3701077 0.9288927 -0.01336769 170 85 255 255 
-0.211587 -0.0636911 -0.00501259 -0.8351187 0.5387906 -0.1108216 170 85 255 255 
-0.0018753 -0.187141 -0.149775 0.2839689 0.144621 -0.9478642 170 85 255 255 
0.0183103 -0.182965 -0.142326 0.2071837 0.2317976 -0.9504445 170 85 255 255 
0.0322217 -0.167313 -0.134641 -0.02459283 0.3637417 -0.9311752 170 85 255 255 
0.0236675 -0.146992 -0.123167 -0.01907921 0.5490649 -0.835562 170 85 255 255 
-0.00232452 -0.142332 -0.126149 0.3313664 0.5611188 -0.7585131 170 85 255 255 
0.0375806 -0.18533 -0.140019 0.05966397 0.1029998 -0.9928904 170 85 255 255 
0.0530379 -0.201545 -0.137283 -0.0862436 -0.2871268 -0.9540023 170 85 255 255 
0.0772348 -0.20845 -0.140694 -0.3486719 -0.5975842 -0.7220257 170 85 255 255 
0.0988175 -0.224384 -0.140468 -0.4640766 -0.6946629 -0.5496148 170 85 255 255 
0.119251 -0.222512 -0.162731 -0.5396721 -0.6433421 -0.5430146 170 85 255 255 
0.03788 -0.218276 -0.135529 0.259173 -0.3555562 -0.8980029 170 85 255 255 
0.0772845 -0.19139 -0.155355 -0.5845714 -0.3722538 -0.7209046 170 85 255 255 
0.080882 -0.225907 -0.127445 -0.1967051 -0.6587982 -0.7261488 170 85 255 255 
0.0653619 -0.242778 -0.113036 0.1207231 -0.6505291 -0.7498252 170 85 255 255 
0.0731805 -0.173068 -0.155239 -0.6160979 0.1284176 -0.7771308 170 85 255 255 
0.0897045 -0.191329 -0.166141 -0.5251458 -0.2941074 -0.7985755 170 85 255 255 
0.102707 -0.199007 -0.171074 -0.5103787 -0.4025315 -0.7599224 170 85 255 255 
0.119058 -0.208637 -0.176942 -0.5348689 -0.4289051 -0.7279806 170 85 255 255 
0.127514 -0.196293 -0.185172 -0.3672046 0.138593 -0.9197569 170 85 255 255 
0.13998 -0.205302 -0.190755 -0.412594 0.01571877 -0.9107794 170 85 255 255 
0.149824 -0.215626 -0.194546 -0.4731582 -0.2153201 -0.8542591 170 85 255 255 
0.161245 -0.221969 -0.199237 -0.4799165 -0.243414 -0.84287 170 85 255 255 
0.175364 -0.230409 -0.20401 -0.4802269 -0.3229581 -0.8155246 170 85 255 255 
0.173584 -0.215336 -0.204853 -0.3318716 0.1829839 -0.9254071 170 85 255 255 
0.178202 -0.198362 -0.197173 -0.1222263 0.5547554 -0.8229868 170 85 255 255 
0.188397 -0.22907 -0.211289 -0.3895114 -0.1087338 -0.9145808 170 85 255 255 
0.202734 -0.22056 -0.215065 -0.2368788 0.2980763 -0.9246832 170 85 255 255 
0.199745 -0.239634 -0.214151 -0.4104632 -0.2738636 -0.8697809 170 85 255 255 
0.0815106 -0.18364 -0.162988 -0.5832338 -0.07907673 -0.8084462 170 85 255 255 
-0.172104 -0.359269 -0.00938238 -0.9683493 -0.2015671 -0.1472088 170 85 255 255 
-0.172319 -0.335226 -0.0164663 -0.8771141 -0.1392194 -0.4596616 170 85 255 255 
-0.16873 -0.368903 -0.0231312 -0.9827685 -0.03908132 -0.1806621 170 85 255 255 
-0.292266 -0.291505 -0.0889456 0.8983775 0.2467565 0.3633583 170 85 255 255 
-0.288266 -0.299574 -0.0955502 0.7294979 -0.2969609 0.6161551 170 85 255 255 
-0.280983 -0.308012 -0.105167 -0.04619232 -0.5957637 0.8018304 170 85 255 255 
-0.278654 -0.297571 -0.101297 0.2316509 -0.1156773 0.9658968 170 85 255 255 
-0.274336 -0.285615 -0.103446 -0.05566001 0.2943368 0.9540796 170 85 255 255 
-0.260134 -0.28158 -0.0989442 -0.5527686 0.09594139 0.8277935 170 85 255 255 
-0.257005 -0.265144 -0.10215 -0.7948267 0.3731942 0.478515 170 85 255 255 
-0.26942 -0.305285 -0.10276 -0.1593867 -0.2754029 0.9480239 170 85 255 255 
-0.257003 -0.309674 -0.100476 -0.3532015 -0.2080393 0.912123 170 85 255 255 
-0.244993 -0.306014 -0.0938734 -0.4278398 -0.30409 0.8511653 170 85 255 255 
-0.249351 -0.292113 -0.0926885 -0.5713677 -0.1919047 0.7979421 170 85 255 255 
-0.25954 -0.322424 -0.104282 -0.3325605 -0.2981371 0.8947166 170 85 255 255 
-0.267093 -0.332079 -0.111051 -0.3811782 -0.3555077 0.8534152 170 85 255 255 
-0.283312 -0.328944 -0.119574 -0.5390126 -0.2900628 0.7907775 170 85 255 255 
-0.249017 -0.331591 -0.10481 -0.1571628 -0.5057758 0.848228 170 85 255 255 
-0.232981 -0.32784 -0.100164 0.03219404 -0.663038 0.7478932 170 85 255 255 
-0.240291 -0.342062 -0.113719 0.1558677 -0.751383 0.6411933 170 85 255 255 
-0.229688 -0.345883 -0.126712 0.4380557 -0.8120638 0.3855642 170 85 255 255 
-0.23058 -0.352629 -0.145077 0.564967 -0.8201205 0.0906352 170 85 255 255 
-0.21352 -0.337371 -0.127344 0.4286712 -0.8487379 0.3096532 170 85 255 255 
-0.269191 -0.344874 -0.117105 -0.2914041 -0.4347851 0.8520831 170 85 255 255 
-0.208623 -0.327937 -0.112241 0.3554568 -0.8106889 0.4652248 170 85 255 255 
-0.191793 -0.321843 -0.117022 0.3962367 -0.8379043 0.3753837 170 85 255 255 
-0.180909 -0.311277 -0.104708 0.3583051 -0.8614336 0.3599301 170 85 255 255 
0.11012 0.10505 0.0238496 -0.00422178 0.9424142 -0.3344216 170 85 255 255 
0.213679 0.221732 0.163906 0.5029094 -0.2056715 0.8395126 170 85 255 255 
-0.0357839 -0.0025294 0.108473 -0.7552807 0.6475849 0.1009209 170 85 255 255 
-0.0312254 -0.0135193 0.128152 -0.5576733 0.4541989 0.6947689 170 85 255 255 
-0.0238807 -0.033229 0.139313 -0.3266745 0.2126342 0.9209074 170 85 255 255 
-0.00300831 -0.046529 0.144036 -0.07825328 0.1228335 0.9893374 170 85 255 255 
-0.00364169 -0.0760125 0.145155 -0.1059992 -0.01462317 0.9942587 170 85 255 255 
-0.0103288 -0.10643 0.141831 -0.1327664 -0.03997705 0.9903408 170 85 255 255 
0.015326 -0.129347 0.142131 0.0259771 -0.1321225 0.990893 170 85 255 255 
-0.041062 -0.0443202 0.130625 -0.5917497 0.236917 0.770521 170 85 255 255 
-0.0555252 -0.0465254 0.114753 -0.5970227 0.5788696 0.5554042 170 85 255 255 
-0.0556686 -0.0325657 0.0996413 -0.8314672 0.5406275 0.128001 170 85 255 255 
-0.0768736 -0.0422105 0.0949058 0.1681522 0.9404172 0.2955342 170 85 255 255 
-0.0167984 0.000564353 0.123722 -0.286609 0.6514658 0.7024583 170 85 255 255 
0.00524698 0.0020139 0.129964 -0.1494451 0.5562027 0.8174992 170 85 255 255 
-0.0281137 -0.0861213 0.139333 -0.2910531 -0.03153893 0.956187 170 85 255 255 
-0.0785841 -0.0379469 0.0747431 0.2003846 0.9731642 0.113126 170 85 255 255 
-0.0762529 -0.0505618 0.114297 0.1249155 0.7935817 0.5955033 170 85 255 255 
-0.032521 -0.108383 0.136839 0.07285641 0.1783964 0.9812577 170 85 255 255 
-0.0633754 -0.0458183 0.101476 -0.3662125 0.8725057 0.3234538 170 85 255 255 
-0.0250298 0.00663901 0.112981 -0.5233721 0.8032486 0.2843821 170 85 255 255 
-0.0219675 0.00393164 0.0935556 -0.5304756 0.7982853 -0.2851951 170 85 255 255 
-0.147404 -0.304789 -0.127071 0.4549334 -0.8868836 0.08045595 170 85 255 255 
0.192111 0.473304 0.143665 -0.04499388 0.9597499 0.2772286 170 85 255 255 
0.202701 0.475169 0.131787 0.2521471 0.9418052 0.2223172 170 85 255 255 
0.206558 0.475874 0.120017 0.4442482 0.8720099 0.2055292 170 85 255 255 
0.202492 0.480449 0.108775 0.2698415 0.9032128 0.3337545 170 85 255 255 
0.157654 -0.366957 -0.0205798 0.9017909 -0.2419683 0.3580846 170 85 255 255 
0.26661 -0.307414 -0.281977 -0.6022413 -0.4979949 -0.6239444 170 85 255 255 
0.270077 -0.295571 -0.288815 -0.6839415 0.05742908 -0.7272729 170 85 255 255 
0.283263 -0.291236 -0.297392 -0.4298704 0.005612668 -0.9028732 170 85 255 255 
0.290598 -0.279448 -0.297082 -0.3556319 0.5444329 -0.7596834 170 85 255 255 
0.304158 -0.276932 -0.29882 -0.01589277 0.5789867 -0.8151821 170 85 255 255 
0.315035 -0.2885 -0.301158 0.1364477 -0.03175002 -0.9901384 170 85 255 255 
0.307588 -0.298676 -0.297006 0.06837358 -0.6565899 -0.7511423 170 85 255 255 
0.297613 -0.307939 -0.283621 0.09313216 -0.8540653 -0.5117605 170 85 255 255 
0.293787 -0.301201 -0.295424 -0.03897395 -0.6482393 -0.7604386 170 85 255 255 
0.318389 -0.297707 -0.296483 0.1351274 -0.6552864 -0.7431961 170 85 255 255 
0.328066 -0.301032 -0.289042 0.1475466 -0.7964893 -0.5863743 170 85 255 255 
0.324582 -0.309109 -0.276338 0.10315 -0.8550187 -0.5082352 170 85 255 255 
0.33579 -0.291676 -0.2964 0.3416881 -0.1315161 -0.9305658 170 85 255 255 
0.346867 -0.288071 -0.287976 0.6412687 0.4846575 -0.5948794 170 85 255 255 
0.353956 -0.299169 -0.28317 0.7236809 -0.3013382 -0.6208714 170 85 255 255 
0.345495 -0.307423 -0.274703 0.155275 -0.8336493 -0.5300176 170 85 255 255 
0.352866 -0.288693 -0.277818 0.8162737 0.5029085 -0.2842187 170 85 255 255 
0.351312 -0.284395 -0.265224 0.8799599 0.4729989 -0.04407381 170 85 255 255 
0.355354 -0.294774 -0.257468 0.8884599 0.3553912 0.2904067 170 85 255 255 
0.360217 -0.304818 -0.260578 0.997685 -0.04567783 0.05038029 170 85 255 255 
0.35682 -0.308388 -0.269609 0.6578238 -0.6307849 -0.4115558 170 85 255 255 
0.359106 -0.312264 -0.252967 0.9665233 -0.2520714 0.04788253 170 85 255 255 
0.356474 -0.316127 -0.245135 0.9101096 -0.2386367 0.3387523 170 85 255 255 
0.351445 -0.319298 -0.237976 0.7611076 -0.1109059 0.6390737 170 85 255 255 
-0.26647 -0.314705 -0.199507 -0.08749459 0.3655034 -0.9266887 170 85 255 255 
-0.27426 -0.329739 -0.204261 0.02983936 0.2833966 -0.9585385 170 85 255 255 
-0.290128 -0.337563 -0.206145 -0.1676901 0.4476469 -0.8783463 170 85 255 255 
-0.303723 -0.332243 -0.195363 -0.4832925 0.6892285 -0.5398078 170 85 255 255 
-0.303858 -0.323407 -0.176279 -0.7093231 0.6738214 -0.2069433 170 85 255 255 
-0.302757 -0.349394 -0.210447 -0.147971 0.6026744 -0.784148 170 85 255 255 
-0.304665 -0.364526 -0.223447 -0.004323928 0.7154213 -0.6986799 170 85 255 255 
-0.321319 -0.375627 -0.232938 -0.3092173 0.7575931 -0.5748369 170 85 255 255 
-0.285437 -0.371465 -0.224735 0.3140354 0.7817482 -0.5387499 170 85 255 255 
-0.28011 -0.37957 -0.242654 0.1786618 0.9100745 -0.3739577 170 85 255 255 
-0.314609 -0.397575 -0.24523 0.02421167 -0.7852791 -0.6186684 170 85 255 255 
-0.31498 -0.344154 -0.199865 -0.5000873 0.6694234 -0.5493496 170 85 255 255 
-0.330892 -0.351901 -0.189469 -0.7228568 0.6621647 -0.1975251 170 85 255 255 
-0.332902 -0.388937 -0.243068 -0.5160742 0.6408724 -0.568287 170 85 255 255 
-0.348245 -0.402805 -0.233911 -0.6875429 -0.1814705 -0.7031026 170 85 255 255 
-0.328232 -0.404959 -0.235266 0.003284936 -0.8472093 -0.531249 170 85 255 255 
-0.273541 -0.396265 -0.240028 0.09834398 -0.843549 -0.5279713 170 85 255 255 
-0.293049 -0.39498 -0.245656 0.115734 -0.8273829 -0.5495847 170 85 255 255 
-0.355214 -0.402159 -0.217135 -0.9106426 0.272112 -0.3109422 170 85 255 255 
-0.360108 -0.415844 -0.205721 -0.9678873 -0.1914573 -0.1629059 170 85 255 255 
-0.346381 -0.42668 -0.201491 -0.05298099 -0.8963336 -0.4402035 170 85 255 255 
-0.340374 -0.436455 -0.180032 -0.3394213 -0.9248739 0.1714689 170 85 255 255 
-0.360217 -0.406031 -0.193698 -0.9976624 0.04109589 0.05459895 170 85 255 255 
-0.356506 -0.391255 -0.182727 -0.9471145 0.276053 0.1636122 170 85 255 255 
-0.356512 -0.407116 -0.177427 -0.8952062 -0.126187 0.4274139 170 85 255 255 
-0.347384 -0.421732 -0.172779 -0.6538517 -0.4523628 0.6065031 170 85 255 255 
-0.348669 -0.37532 -0.17511 -0.8525513 0.4646477 0.2392881 170 85 255 255 
-0.341266 -0.408591 -0.160307 -0.5272649 -0.2858779 0.800166 170 85 255 255 
-0.332592 -0.391247 -0.153464 -0.4962319 -0.03282193 0.8675694 170 85 255 255 
-0.323849 -0.407723 -0.153687 -0.1563067 -0.3975932 0.9041504 170 85 255 255 
-0.349384 -0.43169 -0.189135 -0.5272678 -0.8495126 -0.01780765 170 85 255 255 
-0.335815 -0.43119 -0.192046 0.02521878 -0.8915804 -0.4521597 170 85 255 255 
-0.324454 -0.435806 -0.181733 0.0727689 -0.9896894 -0.1233679 170 85 255 255 
-0.331465 -0.433295 -0.170921 -0.1709557 -0.7673418 0.6180298 170 85 255 255 
-0.314528 -0.431132 -0.168412 0.06274451 -0.7580739 0.6491433 170 85 255 255 
-0.260177 -0.397767 -0.235 0.1518306 -0.8031703 -0.5760771 170 85 255 255 
-0.252953 -0.401301 -0.227678 0.1156118 -0.8603077 -0.4964923 170 85 255 255 
-0.247407 -0.394723 -0.238053 0.6438438 -0.1436208 -0.7515573 170 85 255 255 
-0.24372 -0.401046 -0.225417 0.8101925 -0.3780602 -0.4479495 170 85 255 255 
-0.243948 -0.396615 -0.216223 0.7705035 0.6342674 0.06347574 170 85 255 255 
-0.258003 -0.38952 -0.247437 0.6717913 -0.1651669 -0.7220916 170 85 255 255 
-0.272162 -0.387844 -0.252537 0.1743566 -0.06794184 -0.9823359 170 85 255 255 
-0.287147 -0.384539 -0.255755 0.07285208 0.2284388 -0.9708287 170 85 255 255 
-0.302942 -0.384129 -0.252391 -0.1198892 0.6348102 -0.7633103 170 85 255 255 
-0.315505 -0.382766 -0.24459 -0.2238593 0.7812405 -0.5827095 170 85 255 255 
-0.323099 -0.390444 -0.249836 -0.2662463 0.1539053 -0.9515388 170 85 255 255 
-0.312399 -0.390336 -0.253745 -0.2423228 -0.09079772 -0.9659376 170 85 255 255 
-0.328503 -0.399215 -0.245058 -0.03089128 -0.7077387 -0.7057987 170 85 255 255 
-0.340635 -0.398589 -0.24271 -0.6282736 -0.2169802 -0.7471224 170 85 255 255 
-0.266346 -0.382624 -0.244488 0.2431493 0.933182 -0.2646692 170 85 255 255 
-0.267321 -0.391914 -0.245578 0.1145597 -0.8110747 -0.5736147 170 85 255 255 
-0.0266812 0.0695328 -0.0242573 -0.3383866 -0.7440004 0.5761579 170 85 255 255 
-0.00773299 0.0681739 -0.0184911 -0.1883133 -0.8493117 0.4931609 170 85 255 255 
0.0122858 0.0669077 -0.0123781 -0.2068596 -0.8456476 0.4920257 170 85 255 255 
0.0150035 0.0767227 0.00239352 -0.3079916 -0.5437132 0.7807159 170 85 255 255 
0.0141467 0.0954062 -0.00215996 -0.2548514 0.8475607 0.4655015 170 85 255 255 
0.0325338 0.098411 -0.00617133 0.03880965 0.9903092 -0.1333468 170 85 255 255 
0.0450676 0.0983028 0.010086 -0.1700909 0.9621903 0.2127416 170 85 255 255 
0.0314473 0.0730983 0.00401189 -0.2078566 -0.6967992 0.6864887 170 85 255 255 
0.0505593 0.0686309 0.00292132 -0.1745327 -0.8249553 0.5375752 170 85 255 255 
0.0698817 0.067505 0.00832925 -0.2260203 -0.8797877 0.4181967 170 85 255 255 
0.145383 0.180744 0.0984363 -0.5365794 0.8372545 -0.1052969 170 85 255 255 
0.132189 0.17376 0.0925198 -0.4969397 0.8655408 -0.06237037 170 85 255 255 
0.121241 0.164951 0.0850023 -0.740142 0.6653343 -0.09757113 170 85 255 255 
0.133425 0.169934 0.0774819 -0.306192 0.8622219 -0.4035095 170 85 255 255 
0.11505 0.153676 0.07879 -0.8944076 0.3712799 -0.2493718 170 85 255 255 
-0.083942 -0.368893 -0.0674225 0.6723722 -0.1105619 -0.7319097 170 85 255 255 
-0.0809876 -0.385027 -0.0581697 0.8496106 -0.1808877 -0.4954206 170 85 255 255 
-0.0723248 -0.382058 -0.0416794 0.879411 -0.2575693 -0.4003677 170 85 255 255 
-0.00904893 0.0914446 -0.0120745 -0.4541412 0.6087986 0.6504768 170 85 255 255 
0.00504523 0.0987359 -0.0150796 -0.07200687 0.985504 0.1536129 170 85 255 255 
0.0060609 0.0932522 -0.034057 0.1740411 0.9359691 -0.3060583 170 85 255 255 
0.0248461 0.0873188 -0.0377031 0.1673653 0.9558144 -0.2416769 170 85 255 255 
0.0363994 0.089055 -0.023789 0.09762818 0.9503639 -0.2954273 170 85 255 255 
0.00213821 0.0914225 -0.00482177 -0.4452542 0.5763966 0.6852122 170 85 255 255 
0.0092558 0.0863088 0.00212053 -0.4303052 0.2002746 0.8801861 170 85 255 255 
0.106375 0.0274106 0.14138 -0.8769413 -0.4169986 -0.238927 170 85 255 255 
-0.263884 -0.385451 -0.252252 0.3535451 0.3179378 -0.8797281 170 85 255 255 
0.258755 0.24689 0.225661 0.08523997 -0.2387094 0.9673427 170 85 255 255 
0.259085 0.23306 0.219814 -0.212453 -0.4438334 0.8705606 170 85 255 255 
0.249971 0.25591 0.228242 0.0273271 -0.2278083 0.9733225 170 85 255 255 
-0.322841 -0.345115 -0.164492 -0.7694501 0.6012518 0.2155058 170 85 255 255 
-0.323706 -0.355326 -0.152393 -0.7133479 0.3625254 0.5997585 170 85 255 255 
-0.279169 -0.265328 -0.0439542 0.7390307 -0.0899634 -0.6676378 170 85 255 255 
-0.285416 -0.267917 -0.0516616 0.638383 0.2172685 -0.7384183 170 85 255 255 
-0.294745 -0.263175 -0.0517725 0.1742667 0.6568726 -0.7335868 170 85 255 255 
0.23393 -0.0149701 -0.10397 -0.08473248 -0.8868051 0.4543094 170 85 255 255 
0.219738 -0.0165453 -0.112039 -0.1649574 -0.8950421 0.4143534 170 85 255 255 
0.204608 -0.00981825 -0.104246 -0.1688571 -0.8854917 0.4328877 170 85 255 255 
0.187184 -0.00954937 -0.110855 -0.1792832 -0.8995218 0.3983944 170 85 255 255 
0.228145 0.230452 0.102316 0.8496552 0.4800072 -0.2183556 170 85 255 255 
0.214447 0.238029 0.0983297 0.2394431 0.5583619 -0.7942916 170 85 255 255 
0.23229 0.220992 0.0943503 0.8383085 0.5139492 -0.1819207 170 85 255 255 
0.215398 0.247623 0.105271 0.4707758 0.6252414 -0.6224495 170 85 255 255 
0.217938 0.25177 0.117669 0.8771335 0.4755684 -0.06686906 170 85 255 255 
0.210276 0.258003 0.111405 0.4955804 0.6196781 -0.6086043 170 85 255 255 
0.220949 0.241286 0.103103 0.6056601 0.5693821 -0.5558595 170 85 255 255 
0.290344 -0.337843 -0.233955 0.07192296 -0.9234126 -0.3770098 170 85 255 255 
0.276226 -0.337233 -0.22831 -0.3357981 -0.8026636 0.4929208 170 85 255 255 
0.296573 -0.339782 -0.226215 0.05499246 -0.9346625 0.3512577 170 85 255 255 
0.227663 0.461812 0.0838481 0.8740173 0.03893442 0.4843324 170 85 255 255 
0.234265 0.455281 0.0718225 0.95322 -0.1341703 0.2708689 170 85 255 255 
0.229698 0.445794 0.0603386 0.7257143 -0.2827699 -0.6272001 170 85 255 255 
0.225781 0.470182 0.0813133 0.6627252 0.7466319 -0.05775996 170 85 255 255 
0.214396 0.4698 0.0788369 -0.0764211 0.6706032 -0.7378694 170 85 255 255 
0.208406 0.478123 0.0862021 0.2564068 0.6900247 -0.6768467 170 85 255 255 
0.214031 0.460896 0.0711899 -0.2337523 0.6172987 -0.7512005 170 85 255 255 
0.217085 0.451741 0.0628259 -0.2365063 0.5381886 -0.808961 170 85 255 255 
0.219354 0.474333 0.0827819 0.3848725 0.8103485 -0.441824 170 85 255 255 
0.21619 0.47758 0.0903862 0.586249 0.8092005 -0.03881652 170 85 255 255 
0.217994 0.472178 0.097233 0.7985217 0.5122134 0.3162288 170 85 255 255 
0.209525 0.481852 0.0939712 0.5253626 0.85061 -0.0213733 170 85 255 255 
0.227208 0.456115 0.0633709 0.05629682 0.5090198 -0.8589119 170 85 255 255 
0.234329 0.451682 0.0642008 0.8891037 -0.1519215 -0.4317575 170 85 255 255 
0.23166 0.462658 0.0759848 0.8623971 0.5016739 0.06778271 170 85 255 255 
0.273713 -0.249314 -0.252993 -0.4328643 0.5014517 -0.7491159 170 85 255 255 
0.274317 -0.268417 -0.267071 -0.5987007 0.5417094 -0.5900072 170 85 255 255 
0.263304 -0.282613 -0.260934 -0.8903037 0.3048327 -0.3382845 170 85 255 255 
-0.240326 -0.404033 -0.2139 0.9622409 -0.1945855 -0.190339 170 85 255 255 
-0.241182 -0.408607 -0.207233 0.9154164 -0.4008368 -0.03664326 170 85 255 255 
0.243855 0.194683 0.113624 0.8910481 0.4390423 -0.1152177 170 85 255 255 
0.235959 0.206195 0.114609 0.8543286 0.4683374 -0.2253501 170 85 255 255 
-0.329827 -0.30598 -0.098469 -0.3671781 -0.9293378 -0.03887782 170 85 255 255 
-0.057071 -0.0425853 0.0117122 0.3300659 0.9414508 -0.06875247 170 85 255 255 
-0.0551192 -0.0420888 0.0309046 -0.04213108 0.9874758 -0.1520412 170 85 255 255 
-0.0534835 -0.0402863 0.0500454 -0.3499047 0.934899 -0.05941902 170 85 255 255 
-0.0435993 -0.0469165 0.00748095 -0.09771121 0.9628661 -0.2516774 170 85 255 255 
-0.0255629 -0.0374196 0.00481763 -0.4864136 0.7697955 -0.4132998 170 85 255 255 
-0.00817324 -0.0328811 -0.0061182 -0.4553564 0.7579283 -0.4671137 170 85 255 255 
-0.00350439 -0.0437548 -0.0255784 -0.3859443 0.7174336 -0.5799448 170 85 255 255 
-0.0349503 -0.0490115 -0.00492533 -0.2153202 0.9063221 -0.3636172 170 85 255 255 
-0.0419875 -0.0536475 -0.0293419 0.3711492 0.901586 -0.2222409 170 85 255 255 
-0.0139014 -0.0607747 -0.0378374 -0.1897414 0.7723177 -0.6062372 170 85 255 255 
-0.0105205 -0.0780801 -0.0585195 0.0554659 0.7693507 -0.6364142 170 85 255 255 
-0.0335249 -0.0540562 -0.0180409 -0.03908524 0.9352296 -0.3518777 170 85 255 255 
-0.0278411 -0.0595083 -0.0313207 -0.007307248 0.9102334 -0.4140311 170 85 255 255 
0.193253 0.49569 0.0858481 0.6504494 0.7100354 -0.2697504 170 85 255 255 
0.189805 0.494474 0.0949255 0.2731848 0.7185903 0.6395296 170 85 255 255 
0.179559 0.491992 0.0947812 -0.3113291 0.520123 0.7953278 170 85 255 255 
0.19709 0.487808 0.0978913 0.349942 0.8374393 0.4198048 170 85 255 255 
0.174576 0.497081 0.0879734 -0.5176333 0.8106031 0.2738219 170 85 255 255 
0.179584 0.496616 0.0784813 0.0156153 0.7941127 -0.6075698 170 85 255 255 
0.175502 0.48892 0.0725035 0.03080481 0.477372 -0.8781612 170 85 255 255 
0.169475 0.481635 0.069206 -0.02536444 0.3975721 -0.9172204 170 85 255 255 
0.164994 0.474033 0.0669237 -0.09815762 0.189135 -0.9770328 170 85 255 255 
0.155945 0.469227 0.0714265 -0.9346433 0.1026486 -0.3404485 170 85 255 255 
0.159639 0.459314 0.0671634 -0.5138082 -0.365155 -0.7763137 170 85 255 255 
0.160451 -0.0544036 0.113535 0.08210246 -0.5064036 0.8583791 170 85 255 255 
0.0454737 -0.0938547 0.293886 -0.5733576 -0.1042276 0.8126486 170 85 255 255 
0.0481458 -0.104952 0.292926 -0.641011 -0.3998745 0.6551377 170 85 255 255 
0.0550885 -0.114349 0.29062 -0.5275296 -0.7039415 0.4755828 170 85 255 255 
0.0654216 -0.120788 0.289843 -0.383719 -0.7437806 0.5473118 170 85 255 255 
0.0691263 -0.126298 0.278339 -0.6159293 -0.7686241 -0.1727663 170 85 255 255 
0.0372417 -0.0943784 0.286279 -0.8642513 -0.3411919 0.3696725 170 85 255 255 
0.0377118 -0.088702 0.274623 -0.774902 -0.4008586 -0.488712 170 85 255 255 
0.179652 -0.262284 0.0054219 0.8812469 -0.2568294 0.3967904 170 85 255 255 
0.186087 -0.244472 0.00347757 0.9267038 -0.2682043 0.2632232 170 85 255 255 
0.246807 -0.00615903 -0.103541 0.9848849 -0.1683854 -0.04059821 170 85 255 255 
0.242297 -0.0135206 -0.100916 0.5126679 -0.7916437 0.3323732 170 85 255 255 
0.240802 -0.0172339 -0.108388 0.4420744 -0.8514679 0.2820865 170 85 255 255 
0.232593 -0.0188607 -0.112191 -0.04033397 -0.9196714 0.390612 170 85 255 255 
0.240348 -0.0194541 -0.117278 0.5826619 -0.8113856 0.04645934 170 85 255 255 
0.238974 -0.018297 -0.127651 0.7612401 -0.5663891 -0.3157801 170 85 255 255 
-0.164632 -0.397326 -0.024693 -0.9682389 -0.175626 0.1779575 170 85 255 255 
0.0813645 -0.458079 -0.0716845 -0.4449283 -0.6818271 -0.5806468 170 85 255 255 
0.302397 0.127887 0.0470846 0.9385785 -0.2428578 -0.2451335 170 85 255 255 
0.298473 0.138148 0.0455108 0.6300828 0.7481791 -0.2079033 170 85 255 255 
0.292313 0.136477 0.0386335 0.3702869 0.6639683 -0.6496412 170 85 255 255 
0.288054 0.130079 0.0326142 0.4095391 0.08861448 -0.9079787 170 85 255 255 
0.28271 0.137427 0.0379629 0.06168448 0.8341492 -0.5480787 170 85 255 255 
0.271939 0.136706 0.038053 0.08732061 0.873603 -0.478741 170 85 255 255 
0.261008 0.14116 0.0404912 0.5595998 0.7129 -0.4226364 170 85 255 255 
0.28194 0.12422 0.0312108 0.4545568 -0.345955 -0.8207882 170 85 255 255 
0.300876 0.126279 0.0551937 0.9029238 -0.3237808 0.2826564 170 85 255 255 
0.295306 0.129324 0.0632115 0.6787194 0.2588319 0.6872744 170 85 255 255 
0.286846 0.130603 0.0706512 0.5806407 0.5317903 0.6164864 170 85 255 255 
0.282604 0.11846 0.0804122 0.9277208 0.2017145 0.3140787 170 85 255 255 
0.273418 0.134767 0.0747422 0.6816441 0.6829513 0.2625622 170 85 255 255 
0.296205 0.121995 0.0600976 0.7640211 -0.5253802 0.3744963 170 85 255 255 
0.289869 0.116278 0.0576534 0.649673 -0.7601467 0.01010218 170 85 255 255 
0.283444 0.108666 0.0679441 0.9446861 -0.326695 0.02895859 170 85 255 255 
0.208186 0.435058 0.0678801 0.1724897 -0.9446489 0.2790801 170 85 255 255 
0.218992 0.437774 0.0675136 0.4056178 -0.8544541 0.3246265 170 85 255 255 
0.20517 0.444041 0.0615 -0.2731615 0.4318078 -0.8596074 170 85 255 255 
0.195457 0.447135 0.0675955 -0.3132099 0.5102436 -0.8009688 170 85 255 255 
0.224157 0.438328 0.0597838 0.562409 -0.6732159 -0.4800797 170 85 255 255 
0.221367 0.446069 0.0584788 0.02437607 0.2550164 -0.9666294 170 85 255 255 
0.168291 -0.443724 -0.076199 0.6954868 -0.584172 -0.4183792 170 85 255 255 
-0.239169 -0.248023 -0.0426243 -0.5712537 -0.8178486 0.0692319 170 85 255 255 
-0.246509 -0.244281 -0.0523825 -0.7926756 -0.6094199 0.01651752 170 85 255 255 
-0.245933 -0.250709 -0.0701381 -0.9293 -0.2884189 0.2306861 170 85 255 255 
-0.252213 -0.23035 -0.0598084 -0.9355227 -0.3306127 -0.1244697 170 85 255 255 
-0.256922 -0.212794 -0.063622 -0.9439418 -0.2293886 -0.2373915 170 85 255 255 
-0.26443 -0.20039 -0.048456 -0.9142582 -0.161721 -0.3714544 170 85 255 255 
-0.236601 -0.248665 -0.0331221 -0.442368 -0.8968261 -0.00366717 170 85 255 255 
-0.248238 -0.244973 -0.04299 -0.5051672 -0.8104988 -0.2964759 170 85 255 255 
-0.257005 -0.243536 -0.0363368 -0.2321197 -0.5935545 -0.770593 170 85 255 255 
-0.264619 -0.253098 -0.0324677 0.5401379 -0.4004962 -0.7401714 170 85 255 255 
-0.260909 -0.234911 -0.0387305 -0.5006357 -0.2974707 -0.8129423 170 85 255 255 
-0.270856 -0.228969 -0.0335016 -0.4416752 0.09183911 -0.8924621 170 85 255 255 
-0.268106 -0.214873 -0.0367573 -0.791388 -0.04729854 -0.6094816 170 85 255 255 
-0.255525 -0.250409 -0.0291707 0.2786396 -0.7710153 -0.5726215 170 85 255 255 
-0.246354 -0.252152 -0.0213798 0.2185072 -0.9468164 -0.2362065 170 85 255 255 
-0.25421 -0.258055 -0.0140562 0.5373806 -0.8195007 -0.1990995 170 85 255 255 
-0.253371 -0.258976 0.00135493 0.3098446 -0.9507115 0.0119922 170 85 255 255 
-0.263391 -0.256528 0.0180325 -0.1191227 -0.8728755 0.4731789 170 85 255 255 
-0.264412 -0.265611 -0.0106557 0.5081064 -0.8607044 0.03187427 170 85 255 255 
-0.268835 -0.263918 0.00476582 0.1390234 -0.9054352 0.401073 170 85 255 255 
-0.24972 -0.252323 0.0327963 -0.541587 -0.7959366 0.2704966 170 85 255 255 
-0.239732 -0.259608 0.0493553 -0.7628391 -0.6386429 0.1010532 170 85 255 255 
-0.242639 -0.251027 0.0706418 -0.8513322 -0.4711703 0.2307205 170 85 255 255 
-0.27192 -0.270836 -0.02103 0.5923428 -0.8046618 -0.04061314 170 85 255 255 
-0.264888 -0.241199 0.0366373 -0.5488179 -0.6298909 0.5495784 170 85 255 255 
-0.279792 -0.22631 0.033251 -0.7898919 -0.2310851 0.5680409 170 85 255 255 
-0.274206 -0.207933 0.0474852 -0.8568286 -0.08421293 0.5086777 170 85 255 255 
-0.283361 -0.276288 -0.0174295 0.1733585 -0.8831601 0.4358613 170 85 255 255 
-0.267659 -0.226048 0.0482271 -0.7266709 -0.4118504 0.5498443 170 85 255 255 
0.202151 0.274483 0.19338 -0.2758653 -0.6996533 0.6590779 170 85 255 255 
0.194908 0.283204 0.198963 -0.2983655 -0.647249 0.7014605 170 85 255 255 
-0.157532 -0.273615 -0.179435 0.2902835 -0.1120243 -0.950361 170 85 255 255 
-0.176899 -0.279729 -0.184503 0.2488534 -0.002415582 -0.9685382 170 85 255 255 
-0.188947 -0.290942 -0.187096 0.3050531 -0.1179649 -0.945001 170 85 255 255 
-0.192598 -0.3074 -0.18306 0.4390722 -0.459138 -0.7722745 170 85 255 255 
-0.203551 -0.297799 -0.190929 0.2607502 -0.0636014 -0.963309 170 85 255 255 
-0.222085 -0.288246 -0.191352 0.03873745 0.3540657 -0.934418 170 85 255 255 
-0.217908 -0.303036 -0.194268 0.2063429 -0.01990966 -0.9782771 170 85 255 255 
-0.355074 -0.426501 -0.195973 -0.7023258 -0.7085995 -0.06800863 170 85 255 255 
-0.354866 -0.423993 -0.205337 -0.4770606 -0.809751 -0.3416381 170 85 255 255 
-0.355569 -0.419108 -0.214528 -0.5797424 -0.6387279 -0.5058908 170 85 255 255 
-0.353763 -0.412061 -0.224887 -0.6103048 -0.4682102 -0.6389893 170 85 255 255 
-0.346029 -0.286085 -0.1062 -0.9757324 0.07874383 0.2043175 170 85 255 255 
-0.341227 -0.288967 -0.0947058 -0.9704546 0.1150342 0.2120967 170 85 255 255 
-0.336277 -0.278132 -0.0971269 -0.6104479 0.7016622 0.3674556 170 85 255 255 
-0.328988 -0.269127 -0.105169 -0.2695883 0.8428475 0.4657578 170 85 255 255 
-0.340297 -0.292656 -0.0831052 -0.9416699 -0.1564619 0.2979555 170 85 255 255 
-0.335578 -0.266756 -0.115188 -0.4862684 0.8574607 0.1682387 170 85 255 255 
-0.339311 -0.299368 -0.0917431 -0.8075848 -0.5728772 0.1400657 170 85 255 255 
0.212569 0.261061 0.18216 -0.1459013 -0.7648122 0.6275151 170 85 255 255 
0.216886 0.255854 0.175009 0.5655565 -0.754218 0.3336183 170 85 255 255 
0.219484 0.251322 0.162982 0.9372232 -0.1005831 0.3339098 170 85 255 255 
0.212289 0.247584 0.170006 0.5967057 -0.4333904 0.6753629 170 85 255 255 
0.218513 0.26322 0.154269 0.8977751 0.3901831 -0.2043457 170 85 255 255 
0.225667 0.261532 0.178216 0.4678554 -0.2782083 -0.8388752 170 85 255 255 
0.218436 0.276817 0.178562 0.6929189 0.43988 -0.5712872 170 85 255 255 
0.234042 0.273996 0.185236 0.3803059 0.4867194 -0.7864297 170 85 255 255 
0.223426 0.242038 0.154678 0.9169396 0.1223522 0.3798048 170 85 255 255 
0.21181 0.288948 0.181391 0.7218199 0.5377919 -0.4356097 170 85 255 255 
0.220498 0.257755 0.18435 -0.4588706 -0.8844904 -0.08434789 170 85 255 255 
0.211254 0.266563 0.187703 -0.3954396 -0.7444895 0.5379247 170 85 255 255 
0.211739 0.26954 0.199826 -0.6933439 -0.6846334 0.224836 170 85 255 255 
0.278409 -0.209413 -0.174692 0.6348942 0.7214416 0.2764623 170 85 255 255 
0.233056 0.457965 0.0658843 0.6520135 0.5345247 -0.5377377 170 85 255 255 
0.227063 0.46182 0.0682472 0.1358193 0.7690975 -0.6245336 170 85 255 255 
0.220168 0.458063 0.0666597 -0.2252008 0.6205274 -0.7511526 170 85 255 255 
-0.0481392 -0.0447802 0.0166181 -0.06857488 0.9688093 -0.2381304 170 85 255 255 
0.131516 0.0530135 0.000672445 -0.3440335 -0.9351377 -0.08460721 170 85 255 255 
0.12038 0.0567042 0.000376152 -0.2331622 -0.9674205 0.0986561 170 85 255 255 
0.134766 0.046581 0.0097546 -0.486178 -0.5595742 -0.6711988 170 85 255 255 
0.0956782 -0.141364 0.26837 -0.4696312 -0.8558709 -0.2166369 170 85 255 255 
0.0877085 -0.13595 0.269242 -0.5650848 -0.7152563 -0.4112028 170 85 255 255 
0.0854698 -0.124959 0.261926 -0.5584516 -0.517889 -0.6480145 170 85 255 255 
0.0839071 -0.111836 0.253439 -0.5467299 -0.4996682 -0.6718766 170 85 255 255 
0.0904091 -0.099649 0.239147 -0.5462385 -0.4971439 -0.674145 170 85 255 255 
0.0872053 -0.136949 0.279095 -0.3422611 -0.8932824 0.2913827 170 85 255 255 
0.085161 -0.130401 0.287023 -0.1115136 -0.665336 0.7381685 170 85 255 255 
0.0763801 -0.13103 0.282851 -0.4966504 -0.7908278 0.357673 170 85 255 255 
-0.00884361 -0.0890856 -0.0728998 0.2253431 0.7826666 -0.5802186 170 85 255 255 
-0.00654069 -0.102279 -0.0895079 0.3030102 0.7184792 -0.626077 170 85 255 255 
-0.0290648 -0.104665 -0.111248 0.5257924 0.6206049 -0.5817146 170 85 255 255 
-0.0100257 -0.116287 -0.107029 0.4162377 0.6363664 -0.6494489 170 85 255 255 
0.0875054 -0.104584 0.297054 0.4551548 0.1210965 0.8821393 170 85 255 255 
0.191386 -0.264049 -0.175252 -0.392672 -0.9106995 -0.1281997 170 85 255 255 
0.190045 -0.262732 -0.156889 -0.1855351 -0.964585 0.1874899 170 85 255 255 
0.204589 -0.269071 -0.178679 -0.3664396 -0.9299017 -0.03170152 170 85 255 255 
0.222111 -0.273266 -0.172895 -0.1914532 -0.9410444 0.2788928 170 85 255 255 
0.189235 0.0753918 -0.0129238 0.03000866 0.4446292 -0.8952119 170 85 255 255 
0.0782752 -0.467624 -0.0498343 -0.751476 -0.6568122 -0.06230228 170 85 255 255 
0.0759673 -0.46177 -0.0555898 -0.9070917 -0.3969456 -0.1400677 170 85 255 255 
0.0772195 -0.460605 -0.0642783 -0.7686833 -0.4979498 -0.4014624 170 85 255 255 
0.151932 0.323656 0.079912 -0.7866599 0.2457674 -0.5663608 170 85 255 255 
0.153175 0.313215 0.0881136 -0.8567492 -0.5068873 -0.09511162 170 85 255 255 
0.161272 0.302381 0.0857396 -0.7789162 -0.6260048 0.03751777 170 85 255 255 
0.163146 0.324848 0.0718597 -0.1640628 0.7619916 -0.6264601 170 85 255 255 
0.151557 0.334415 0.0880604 -0.4186879 0.6349044 -0.649305 170 85 255 255 
0.142886 0.334889 0.0972586 -0.78715 0.277588 -0.5507631 170 85 255 255 
0.140662 0.34411 0.107021 -0.5596986 0.6007611 -0.5708096 170 85 255 255 
0.133598 0.347717 0.117582 -0.6920637 0.457022 -0.5587296 170 85 255 255 
0.131314 0.355467 0.129074 -0.4577354 0.728377 -0.5098482 170 85 255 255 
0.127988 0.361743 0.142546 -0.3387272 0.815374 -0.4694988 170 85 255 255 
0.123763 0.348981 0.138438 -0.9403113 -0.09276575 -0.3274282 170 85 255 255 
0.119822 0.353337 0.149718 -0.9400735 -0.1045573 -0.3245452 170 85 255 255 
0.116288 0.351928 0.168204 -0.9369465 -0.1780463 -0.3007173 170 85 255 255 
0.226419 0.174912 -0.00671405 -0.26888 -0.2073392 -0.9405923 170 85 255 255 
0.232006 0.15884 0.00199041 0.2044378 -0.3029515 -0.9308199 170 85 255 255 
0.243933 0.169091 0.00253819 0.7699457 -0.3452615 -0.5366359 170 85 255 255 
0.237571 0.172786 -0.00612936 0.363453 -0.2353713 -0.9013891 170 85 255 255 
0.183717 0.142245 0.147062 0.249905 -0.1100964 0.9619908 170 85 255 255 
0.183533 0.157982 0.153224 -0.005854577 -0.04932994 0.9987654 170 85 255 255 
0.200684 0.169917 0.154336 0.02342432 -0.09895773 0.9948159 170 85 255 255 
0.175927 0.14817 0.154877 0.3428977 0.1452146 0.9280808 170 85 255 255 
0.164064 0.143191 0.159694 -0.05770468 0.4107962 0.9098992 170 85 255 255 
0.181391 0.132744 0.149775 0.5526891 0.2354864 0.7994254 170 85 255 255 
0.177453 0.123521 0.157312 0.6699601 -0.02743684 0.7418899 170 85 255 255 
0.108424 0.0602759 0.0311611 -0.805021 -0.4899239 -0.3345381 170 85 255 255 
0.101691 0.0511896 0.042029 -0.831609 0.1548937 -0.5333241 170 85 255 255 
0.297187 0.12858 0.124591 0.7595482 -0.2208793 -0.6117996 170 85 255 255 
0.286869 0.125817 0.115842 0.7419506 0.003480888 -0.6704456 170 85 255 255 
0.279264 0.13651 0.11071 0.7003093 0.3099382 -0.6430438 170 85 255 255 
0.277464 0.150893 0.114839 0.5476579 0.3938932 -0.7381863 170 85 255 255 
0.267972 0.163015 0.116989 0.3723769 0.6821229 -0.62932 170 85 255 255 
0.29066 -0.215317 -0.195858 0.5867695 0.8096197 0.01475159 170 85 255 255 
-0.0439761 -0.143405 -0.149346 0.280956 0.3681786 -0.886289 170 85 255 255 
0.0959309 0.0199379 0.158053 -0.8818535 -0.1360985 -0.451455 170 85 255 255 
0.0941358 0.00844127 0.16726 -0.8031826 -0.2562475 -0.5378058 170 85 255 255 
0.273991 -0.158318 0.138404 0.1018161 -0.9827896 -0.1541366 170 85 255 255 
0.280108 -0.155995 0.136908 0.5343391 -0.8182766 0.2119083 170 85 255 255 
0.28311 -0.154668 0.131232 0.4170623 -0.9009169 -0.120032 170 85 255 255 
0.287165 -0.152142 0.126309 0.4315678 -0.8955806 -0.1080958 170 85 255 255 
0.291082 -0.145525 0.127381 0.8147473 -0.2812805 0.5070187 170 85 255 255 
0.258354 -0.329753 -0.2515 -0.6072655 -0.7032577 -0.3696721 170 85 255 255 
0.256649 -0.327468 -0.240856 -0.9247167 -0.1434562 0.3525896 170 85 255 255 
0.265642 -0.321399 -0.233195 -0.7504168 0.0002942442 0.6609649 170 85 255 255 
0.269005 -0.32965 -0.227653 -0.5797085 -0.13536 0.8035022 170 85 255 255 
0.204877 0.287044 0.0357487 0.6180487 0.7407631 -0.2632222 170 85 255 255 
0.289139 -0.339472 -0.226774 -0.07900361 -0.9381073 0.3372139 170 85 255 255 
0.282728 -0.335989 -0.224475 -0.2811326 -0.6019239 0.7474303 170 85 255 255 
0.283065 -0.327384 -0.221193 -0.2706294 -0.2119308 0.9390661 170 85 255 255 
0.28398 -0.316486 -0.219293 -0.2513102 -0.3692009 0.8947256 170 85 255 255 
0.289461 -0.305296 -0.210924 0.02687098 -0.6308237 0.7754608 170 85 255 255 
0.2738 -0.310998 -0.221733 -0.5742817 -0.4698182 0.6704264 170 85 255 255 
0.2646 -0.301502 -0.221281 -0.6818518 -0.6521732 0.3312827 170 85 255 255 
0.282981 -0.339471 -0.231684 -0.09137913 -0.9940411 -0.05943106 170 85 255 255 
0.275544 -0.336339 -0.239462 -0.09072416 -0.9411494 -0.3255873 170 85 255 255 
0.259131 -0.2954 -0.232139 -0.9212387 -0.388361 0.02224864 170 85 255 255 
0.281853 -0.296955 -0.202405 -0.05354098 -0.7720847 0.6332604 170 85 255 255 
0.287258 -0.287693 -0.192682 0.211228 -0.6466204 0.7329835 170 85 255 255 
0.301236 -0.282638 -0.194913 0.4547282 -0.5457505 0.7038314 170 85 255 255 
0.23745 0.0270265 -0.0333549 0.7513014 -0.2952649 0.5902244 170 85 255 255 
0.234865 0.0358956 -0.0292661 0.9224256 0.1631642 0.350012 170 85 255 255 
0.240774 0.0243245 -0.0402136 0.8999474 -0.1756166 0.3990658 170 85 255 255 
0.034599 -0.0884904 0.28182 -0.9774823 -0.1969667 0.07571325 170 85 255 255 
0.0345637 -0.0787252 0.277243 -0.980361 0.1854413 0.06711114 170 85 255 255 
0.0422003 -0.0728232 0.283477 -0.7124475 0.48795 0.5043049 170 85 255 255 
0.048607 -0.0763619 0.292696 -0.5483014 0.3231677 0.7713159 170 85 255 255 
0.0395236 -0.0802562 0.266836 -0.7548018 -0.287841 -0.5894251 170 85 255 255 
0.0486856 -0.0788086 0.257578 -0.6265084 -0.4010884 -0.6682929 170 85 255 255 
0.044992 -0.0647291 0.254151 -0.8151678 -0.1136436 -0.5679672 170 85 255 255 
0.0587204 -0.0731238 0.296598 -0.149579 0.518932 0.8416269 170 85 255 255 
0.068389 -0.0812067 0.300077 0.1513135 0.3177085 0.9360372 170 85 255 255 
0.0829644 -0.0808872 0.290453 0.6053071 0.4203275 0.6759646 170 85 255 255 
0.0435251 -0.0559756 0.262078 -0.852348 0.5213825 0.0407826 170 85 255 255 
0.20354 0.276522 0.016541 0.1709041 0.7003232 -0.6930651 170 85 255 255 
-0.253582 -0.386742 -0.238773 0.7075329 0.5765476 -0.4086442 170 85 255 255 
-0.0267016 0.0982672 -0.0374627 -0.1345417 0.9896931 0.04905273 170 85 255 255 
0.214024 0.433945 0.0622105 0.2794607 -0.9476234 -0.1546343 170 85 255 255 
0.204736 0.432758 0.058829 -0.1348177 -0.7064351 -0.6948191 170 85 255 255 
0.201109 0.433103 0.0655996 -0.07858089 -0.9963966 0.03192065 170 85 255 255 
0.201809 0.436011 0.073894 0.1189104 -0.9572713 0.2636134 170 85 255 255 
0.193477 0.433855 0.0682907 -0.1338805 -0.9876173 -0.0817814 170 85 255 255 
0.185218 0.436354 0.0703184 -0.5587313 -0.6494169 -0.5158266 170 85 255 255 
0.180836 0.436291 0.0819631 -0.3976287 -0.8996556 -0.1803085 170 85 255 255 
0.191166 0.440882 0.0659291 -0.519736 0.3473999 -0.7805049 170 85 255 255 
0.187348 0.447071 0.070626 -0.212741 0.3001082 -0.9298798 170 85 255 255 
0.179215 0.453739 0.0726364 0.1085592 0.1076819 -0.9882407 170 85 255 255 
0.193028 0.454826 0.0736221 -0.1083334 0.4596202 -0.8814836 170 85 255 255 
0.173421 0.440644 0.0776765 -0.4634045 -0.8350376 -0.2965947 170 85 255 255 
-0.147031 -0.496444 -0.028386 -0.6265343 -0.6732973 0.3925883 170 85 255 255 
-0.151597 -0.495421 -0.0374969 -0.6159612 -0.7834806 0.08215871 170 85 255 255 
-0.157627 -0.484775 -0.0397619 -0.8935701 -0.2483257 0.3739879 170 85 255 255 
-0.140246 -0.499465 -0.0256815 -0.3061727 -0.8736057 0.3782478 170 85 255 255 
-0.132401 -0.5 -0.0296698 0.04449526 -0.9979824 -0.04529054 170 85 255 255 
-0.132703 -0.497498 -0.0384881 0.01139131 -0.9415902 -0.336568 170 85 255 255 
-0.126331 -0.494492 -0.0452588 0.05252087 -0.9108964 -0.4092793 170 85 255 255 
-0.11646 -0.490117 -0.0524448 0.08099623 -0.8771848 -0.4732721 170 85 255 255 
-0.101295 -0.487303 -0.0547567 0.1134894 -0.8768889 -0.467104 170 85 255 255 
-0.136101 -0.494007 -0.0471871 0.01657155 -0.9189115 -0.3941156 170 85 255 255 
-0.13938 -0.490039 -0.0561432 0.03700086 -0.8947427 -0.4450467 170 85 255 255 
-0.133381 -0.483866 -0.0661423 0.08162715 -0.8622442 -0.4998719 170 85 255 255 
-0.15577 -0.492035 -0.0446482 -0.6964627 -0.7172349 -0.02266764 170 85 255 255 
-0.153261 -0.490282 -0.0555144 -0.3604812 -0.8678771 -0.3418228 170 85 255 255 
0.197755 0.272342 0.0690149 0.1798378 -0.5997384 0.7797258 170 85 255 255 
0.190382 0.263313 0.0560052 -0.5542637 -0.6433728 0.528075 170 85 255 255 
0.0686632 -0.292912 -0.0237205 -0.6242741 -0.7804502 0.03434285 170 85 255 255 
0.056243 -0.29127 -0.0303266 0.2060551 -0.9665586 -0.1526628 170 85 255 255 
0.0398126 -0.298058 -0.030698 0.4220809 -0.8740751 -0.2405006 170 85 255 255 
0.0315681 -0.295788 -0.0489563 0.4180723 -0.8521118 -0.314835 170 85 255 255 
0.043708 -0.285681 -0.061727 0.2577569 -0.8840795 -0.3898267 170 85 255 255 
0.0621136 -0.289132 -0.040881 -0.2491605 -0.9631625 -0.101178 170 85 255 255 
0.0722108 -0.295077 -0.0484755 -0.7823461 -0.528083 -0.330247 170 85 255 255 
0.0577034 -0.286988 -0.0524253 -0.05966571 -0.9486529 -0.3106407 170 85 255 255 
0.0569935 -0.281989 -0.0659264 0.06600716 -0.8873252 -0.4563957 170 85 255 255 
0.064236 -0.290328 -0.0328163 -0.3203594 -0.9435101 -0.08460868 170 85 255 255 
-0.0127838 0.0757233 -0.00921143 -0.3702512 -0.3950418 0.8407474 170 85 255 255 
0.0935192 0.0772038 0.0642915 -0.9604676 -0.2433152 0.1352763 170 85 255 255 
0.169714 0.302879 0.0497006 -0.7803354 0.2582704 -0.5695376 170 85 255 255 
0.163659 0.300165 0.0640716 -0.9126008 -0.305958 -0.2712001 170 85 255 255 
0.172929 0.295611 0.0434924 -0.7596753 0.1602631 -0.6302453 170 85 255 255 
0.049865 0.0913802 0.0221499 -0.6250382 0.1447061 0.7670642 170 85 255 255 
0.0418831 0.0808731 0.013212 -0.3181026 -0.5228122 0.7908717 170 85 255 255 
0.0368549 0.0913191 0.0145569 -0.4199898 0.302794 0.8555259 170 85 255 255 
0.0319565 0.0968433 0.00544037 -0.2745574 0.8659182 0.4180955 170 85 255 255 
0.310435 0.13526 0.142507 0.9058665 -0.3987008 -0.1429812 170 85 255 255 
0.026474 0.0305763 -0.129196 -0.4248652 -0.2795909 -0.8609986 170 85 255 255 
0.017822 0.0292426 -0.122273 -0.5180038 -0.6497982 -0.5562683 170 85 255 255 
0.0163904 0.0280919 -0.108702 -0.3388479 -0.9392272 0.05508633 170 85 255 255 
0.0350495 0.0278097 -0.132911 -0.4252921 -0.225289 -0.876568 170 85 255 255 
0.178361 0.286185 0.0866978 -0.3258776 -0.8914202 0.3149188 170 85 255 255 
0.184473 0.288229 0.0959947 0.3757153 -0.7274892 0.5741059 170 85 255 255 
0.0746028 -0.0119842 0.202652 -0.922385 0.08068345 -0.3777513 170 85 255 255 
0.0770488 -0.00198153 0.201878 -0.875329 0.4823996 -0.0330129 170 85 255 255 
0.0861829 0.00359659 0.206228 -0.3618348 0.7764276 0.5159804 170 85 255 255 
0.0964676 0.00912576 0.20305 -0.08916913 0.7700145 0.6317647 170 85 255 255 
0.110414 0.00821695 0.200752 0.3500555 0.6291314 0.6940137 170 85 255 255 
0.119478 0.0159283 0.18886 0.3885103 0.612932 0.6880218 170 85 255 255 
-0.0749585 -0.470198 -0.0703816 0.8235753 -0.4248874 -0.3757586 170 85 255 255 
-0.0722579 -0.469101 -0.0627931 0.9646554 -0.08500809 -0.2494267 170 85 255 255 
-0.0775597 -0.45771 -0.0519849 0.8580908 0.4985174 0.1231283 170 85 255 255 
-0.0725204 -0.466379 -0.0530837 0.9467583 0.3183821 0.04776512 170 85 255 255 
-0.0822617 -0.458336 -0.0360309 0.8137882 0.4876067 0.3162096 170 85 255 255 
0.11796 -0.00196684 -0.151498 -0.271557 -0.7640354 -0.5852408 170 85 255 255 
0.110489 0.008862 -0.155734 -0.1705414 0.03556013 -0.9847087 170 85 255 255 
0.119387 0.0273131 -0.141295 0.06101786 0.7454154 -0.6638017 170 85 255 255 
0.100036 0.00317869 -0.149099 -0.3928072 -0.7203846 -0.5716192 170 85 255 255 
0.0946498 0.00360487 -0.130289 -0.287653 -0.9536046 0.08884824 170 85 255 255 
0.0996271 0.00897841 -0.108462 -0.187563 -0.9233288 0.3350883 170 85 255 255 
0.0876406 0.00969553 -0.149119 -0.3019145 -0.582392 -0.7547629 170 85 255 255 
0.0889673 0.0239205 -0.144401 -0.002763802 0.7011006 -0.7130571 170 85 255 255 
0.103773 0.0275171 -0.140968 -0.009338927 0.7618343 -0.6477046 170 85 255 255 
0.112143 0.0407687 -0.122665 0.06836222 0.8164392 -0.5733704 170 85 255 255 
0.128275 -0.00210722 -0.155193 -0.2366891 -0.5922912 -0.7701749 170 85 255 255 
0.136944 0.00690927 -0.158099 -0.03915752 0.2914634 -0.9557802 170 85 255 255 
0.1315 0.01712 -0.150046 0.04931409 0.6821849 -0.7295149 170 85 255 255 
0.148823 0.0111196 -0.154092 0.06030399 0.6395777 -0.7663575 170 85 255 255 
0.137878 -0.00286061 -0.157253 -0.1814272 -0.4837329 -0.8562048 170 85 255 255 
0.0812501 0.0180999 -0.148671 -0.1872132 0.1850586 -0.9647303 170 85 255 255 
0.0723702 0.0199576 -0.146504 -0.2733562 0.1354041 -0.9523351 170 85 255 255 
0.0894465 0.0177562 -0.14994 -0.142628 0.3386188 -0.9300509 170 85 255 255 
-0.244247 -0.411744 -0.197734 0.8937882 -0.3486974 0.2820514 170 85 255 255 
0.0532101 -0.0425986 0.239458 -0.9200667 0.2243164 -0.3211847 170 85 255 255 
0.0614299 -0.034607 0.250277 -0.5027015 0.763045 0.406268 170 85 255 255 
0.0718515 -0.0264935 0.244569 -0.1639572 0.7895119 0.5914297 170 85 255 255 
0.0612036 -0.0408317 0.227838 -0.8304558 -0.04910172 -0.5549164 170 85 255 255 
0.211416 0.21985 0.0506815 -0.7050113 -0.01686728 0.7089955 170 85 255 255 
0.209629 0.209187 0.0516229 -0.7889517 0.6107004 0.06782525 170 85 255 255 
0.197715 0.200596 0.0531448 -0.5001144 0.7549416 -0.4242037 170 85 255 255 
0.210711 0.212673 0.041983 -0.9931759 -0.0528394 0.1039695 170 85 255 255 
0.209533 0.205981 0.0261421 -0.9835566 -0.1779996 0.03053797 170 85 255 255 
0.207685 0.214484 0.0320655 -0.9244803 -0.3281025 0.1941263 170 85 255 255 
0.204793 0.215907 0.019768 -0.9191974 -0.3834912 0.08950181 170 85 255 255 
0.207322 0.190012 0.0316877 -0.8129663 0.3711701 -0.4486853 170 85 255 255 
0.210424 0.206724 0.0353988 -0.9996042 0.00144261 0.02809457 170 85 255 255 
0.209086 0.197885 0.0355421 -0.9197266 0.3259719 -0.2187358 170 85 255 255 
0.19948 0.191764 0.0420701 -0.5498577 0.5956429 -0.5855477 170 85 255 255 
0.206287 0.1798 0.0239909 -0.6880405 0.4352437 -0.5806577 170 85 255 255 
0.199532 0.162119 0.0159658 -0.4973098 0.4902857 -0.7157534 170 85 255 255 
0.0889829 0.0153312 0.187549 -0.7356275 0.6311463 0.2459807 170 85 255 255 
0.0895058 0.0194699 0.175832 -0.9048358 0.4219865 -0.05656474 170 85 255 255 
0.0997882 0.0258376 0.180178 -0.2850675 0.8121505 0.5090659 170 85 255 255 
0.0912633 -0.43583 -0.104962 -0.458125 -0.3331324 -0.8241022 170 85 255 255 
0.0893849 -0.44209 -0.0966632 -0.3663363 -0.7296595 -0.5774034 170 85 255 255 
0.0818551 -0.438899 -0.0891003 -0.8731536 -0.1938903 -0.4472242 170 85 255 255 
0.0775492 -0.435915 -0.0759439 -0.9790123 -0.02983701 -0.2016055 170 85 255 255 
0.0805228 -0.426773 -0.087989 -0.943105 -0.009676011 -0.3323542 170 85 255 255 
0.0848008 -0.421093 -0.0971385 -0.7147006 0.170814 -0.6782519 170 85 255 255 
0.0844397 -0.410175 -0.0930928 -0.6534975 0.2964496 -0.6964615 170 85 255 255 
0.0796444 -0.399052 -0.082153 -0.8579021 0.1555561 -0.4897003 170 85 255 255 
0.096306 -0.399151 -0.0928503 -0.2189136 0.34512 -0.9126714 170 85 255 255 
0.0992866 -0.434977 -0.10667 -0.03238856 -0.4243823 -0.9049037 170 85 255 255 
-0.038871 -0.095203 0.134909 -0.02796722 0.1211592 0.9922391 170 85 255 255 
-0.0453136 -0.074362 0.132403 -0.2376328 0.1899158 0.9526083 170 85 255 255 
-0.0642973 -0.0816285 0.135216 0.1921837 0.4932747 0.8483781 170 85 255 255 
0.128958 0.371237 0.164377 -0.2313492 0.529261 -0.816309 170 85 255 255 
0.114324 0.368213 0.169385 -0.8387361 0.2573032 -0.4799134 170 85 255 255 
0.110394 0.358489 0.182698 -0.9939868 -0.08973195 -0.06275718 170 85 255 255 
0.119359 0.382173 0.172221 -0.6600431 0.3243935 -0.677578 170 85 255 255 
0.244566 0.0274799 0.091132 0.6675635 -0.6860734 0.2892445 170 85 255 255 
0.236517 0.0321023 0.108593 0.3461484 -0.7179975 0.6038716 170 85 255 255 
0.228129 0.0154777 0.110489 0.7043127 0.369342 0.6062427 170 85 255 255 
0.243652 -0.0044318 0.106704 0.7166141 0.4926726 0.4936983 170 85 255 255 
0.215089 0.0116198 0.126655 0.6222639 0.3741933 0.6875806 170 85 255 255 
0.193164 -0.00203925 0.149761 0.5198587 0.4124124 0.7481063 170 85 255 255 
0.295901 -0.145148 0.11649 0.6706365 -0.7394162 -0.0592483 170 85 255 255 
0.181002 0.326878 0.162405 0.8781201 0.4123981 -0.242555 170 85 255 255 
0.192626 0.308402 0.164847 0.8378951 0.4706663 -0.2764148 170 85 255 255 
0.180295 0.335983 0.171005 0.8980539 0.308921 -0.3131567 170 85 255 255 
0.215019 0.222685 -0.0085752 -0.2875417 -0.06052015 -0.9558542 170 85 255 255 
0.216226 0.238327 -0.00679645 -0.1190152 0.2721724 -0.95486 170 85 255 255 
0.204842 0.243639 -0.00108745 -0.5465565 0.1600807 -0.8219794 170 85 255 255 
0.197086 0.237151 0.00943393 -0.9156294 -0.1930762 -0.3526252 170 85 255 255 
0.207737 0.21475 -0.00125832 -0.7879571 -0.2563431 -0.559832 170 85 255 255 
0.200663 0.225332 0.00994825 -0.9348295 -0.3120107 -0.1695384 170 85 255 255 
0.227239 0.239308 -0.00361834 0.4887547 0.4659039 -0.7375991 170 85 255 255 
0.210369 0.205349 -0.000451507 -0.8211583 -0.2680591 -0.5038286 170 85 255 255 
0.212421 0.195338 0.00658041 -0.9244862 -0.3320689 -0.1872316 170 85 255 255 
0.0965367 0.0723068 0.0490018 -0.7636067 -0.6453931 0.01930438 170 85 255 255 
-0.263237 -0.382248 -0.20077 0.9184653 0.3603352 -0.1630341 170 85 255 255 
-0.334935 -0.395374 -0.246716 -0.4510387 -0.01572426 -0.8923659 170 85 255 255 
0.0666968 0.0983382 0.0352739 -0.5981162 0.5978224 0.533728 170 85 255 255 
0.0735768 0.104043 0.0256427 -0.2318992 0.9726434 -0.01369885 170 85 255 255 
0.0854137 0.105714 0.0280147 -0.07207298 0.9957486 -0.05736144 170 85 255 255 
0.0966684 0.103408 0.0197312 0.05104239 0.9141818 -0.4020776 170 85 255 255 
-0.293219 -0.246559 0.00868918 -0.7851374 -0.2266023 0.5763772 170 85 255 255 
-0.284829 -0.260543 0.00656712 -0.3551186 -0.6998414 0.6197684 170 85 255 255 
0.231694 -0.239358 -0.229883 -0.4367479 0.07099478 -0.8967782 170 85 255 255 
0.249173 -0.248287 -0.23972 -0.497651 0.1162947 -0.8595459 170 85 255 255 
-0.313753 -0.278534 -0.156686 -0.4841866 -0.1255238 -0.865914 170 85 255 255 
-0.167921 -0.0222432 0.100354 -0.2718416 0.9597676 0.07034365 170 85 255 255 
