ply
format ascii 1.0
comment VCGLIB generated
element vertex 560
property float x
property float y
property float z
property float nx
property float ny
property float nz
property uchar red
property uchar green
property uchar blue
property uchar alpha
element face 0
property list uchar int vertex_indices
end_header
0.2194892 0.3694359 0.1038951 4.04829e-05 2.871982e-05 0.0001421911 255 156 1 255 
-0.09797372 0.1994188 0.1924544 -6.542909e-05 -3.459227e-05 0.0001311656 69 255 187 255 
-0.08612423 0.1457825 0.1782876 -7.497284e-05 -6.680523e-05 0.0001122415 69 255 187 255 
-0.1234155 0.1747147 0.1619551 -0.0001010716 -5.70331e-05 9.598831e-05 34 255 222 255 
-0.05849291 0.1718895 0.201596 -4.01613e-05 -3.254676e-05 0.0001414559 104 255 150 255 
-0.309926 0.2130437 0.08469946 -3.041976e-05 -6.597809e-05 0.0001319225 2 77 255 255 
-0.3068396 0.1540545 0.05762276 -2.96447e-05 -5.193615e-05 0.0001382239 2 77 255 255 
-0.3379529 0.1841835 0.06501132 -1.878041e-05 -6.28797e-05 0.0001355561 2 34 255 255 
-0.2792375 0.1829514 0.07819016 -4.302709e-05 -6.394653e-05 0.000129389 0 108 255 255 
-0.3147401 0.4556938 0.1417199 -3.969629e-05 4.415175e-05 0.0001384082 2 77 255 255 
-0.3161554 0.3907097 0.1494738 -3.114422e-05 -1.705608e-05 0.0001463596 2 77 255 255 
-0.3450045 0.4225627 0.1411142 -4.808995e-05 2.150776e-05 0.0001410914 2 34 255 255 
-0.2866868 0.4213654 0.1597369 -5.863035e-05 4.696784e-06 0.000138645 0 108 255 255 
-0.06135968 -0.2761441 6.336563e-05 2.895583e-08 -3.806642e-07 0.000150605 69 255 187 255 
-0.06136071 -0.3374847 4.080291e-06 8.494737e-10 -3.393251e-08 0.0001506055 69 255 187 255 
-0.09204102 -0.3068111 1.831178e-05 -4.617184e-10 -1.329654e-07 0.0001506054 34 255 222 255 
-0.03067989 -0.3068082 1.601421e-05 1.074637e-08 -1.100689e-07 0.0001506054 104 255 150 255 
-0.306805 -0.2761351 1.435449e-05 -3.261902e-08 -1.171287e-07 0.0001506054 2 77 255 255 
-0.3068036 -0.3374839 3.13903e-07 -1.189853e-09 -4.331115e-09 0.0001506055 2 77 255 255 
-0.3374839 -0.3068039 1.36627e-06 -4.834132e-09 -1.604492e-08 0.0001506055 2 34 255 255 
-0.2761232 -0.3068064 4.089005e-06 -1.006157e-08 -4.05662e-08 0.0001506055 0 108 255 255 
-0.3081872 -0.03419765 0.01336904 -1.124264e-05 -2.709269e-05 0.0001477214 2 77 255 255 
-0.3074823 -0.09388248 0.00539363 -3.912599e-06 -1.419084e-05 0.0001498843 2 77 255 255 
-0.3383225 -0.06335297 0.007578539 -5.599838e-06 -1.688221e-05 0.0001495515 2 34 255 255 
-0.2770616 -0.06415513 0.009833361 -4.657418e-06 -2.195033e-05 0.0001489245 0 108 255 255 
0.4295236 -0.2761237 2.286522e-05 -3.844863e-08 -1.713062e-07 0.0001506054 194 0 0 255 
0.429525 -0.3374839 8.377099e-07 -2.897806e-09 -8.648123e-09 0.0001506055 194 0 0 255 
0.3988446 -0.3068036 3.824429e-06 -1.645928e-09 -3.629297e-08 0.0001506055 233 1 1 255 
0.4602055 -0.3068036 1.002648e-05 -4.796118e-08 -7.574173e-08 0.0001506054 162 0 0 255 
0.1840789 -0.2761296 2.388782e-05 4.788344e-09 -1.63048e-07 0.0001506054 251 191 0 255 
0.1840821 -0.3374839 1.1739e-06 5.757646e-10 -1.070418e-08 0.0001506055 251 191 0 255 
0.1534015 -0.3068043 6.282662e-06 2.879592e-09 -4.864917e-08 0.0001506055 254 227 0 255 
0.2147623 -0.3068043 5.463926e-06 1.773775e-09 -4.414466e-08 0.0001506055 255 156 1 255 
0.18108 -0.0343107 0.01542711 -9.759267e-06 -3.767691e-05 0.0001454896 251 191 0 255 
0.1831254 -0.09351491 0.005560452 -1.778867e-06 -1.579263e-05 0.0001497646 251 191 0 255 
0.1515853 -0.06360485 0.008710566 -2.586062e-06 -2.094299e-05 0.0001491198 254 227 0 255 
0.2133982 -0.06397772 0.01031137 -3.752222e-06 -2.783359e-05 0.0001479636 255 156 1 255 
0.4294703 -0.0309359 0.01221735 1.474666e-05 -1.462807e-05 0.0001491662 194 0 0 255 
0.4290535 -0.09231346 0.006050505 4.929347e-06 -1.380901e-05 0.00014989 194 0 0 255 
0.3982644 -0.06224569 0.01076764 7.251078e-06 -2.051625e-05 0.0001490252 233 1 1 255 
0.4602267 -0.06127329 0.007079203 1.026589e-05 -1.049635e-05 0.0001498881 162 0 0 255 
-0.06135698 -0.03204936 0.01531279 1.982049e-06 -3.309355e-05 0.0001469112 69 255 187 255 
-0.06139031 -0.0928665 0.006807271 2.482889e-06 -1.534233e-05 0.0001498014 69 255 187 255 
-0.0921822 -0.06234283 0.01125239 5.345515e-06 -2.137775e-05 0.0001489847 34 255 222 255 
-0.03071532 -0.06267162 0.009889137 1.586796e-06 -2.058614e-05 0.0001491835 104 255 150 255 
-0.0951097 0.4333864 0.2081555 4.949786e-05 -5.470853e-05 0.0001312972 69 255 187 255 
-0.1039928 0.3692468 0.1916267 3.087129e-05 -2.013673e-05 0.0001460256 69 255 187 255 
-0.1278604 0.4036997 0.205191 1.946536e-05 -5.036466e-05 0.0001405934 34 255 222 255 
-0.06774159 0.3990031 0.1843966 6.051652e-05 -2.805132e-05 0.0001350292 104 255 150 255 
0.434177 0.4395641 0.02644643 4.1096e-05 3.265831e-05 0.0001411615 194 0 0 255 
0.4501215 0.3665371 0.03843256 6.402002e-05 3.233832e-05 0.0001324299 194 0 0 255 
0.4159747 0.3914168 0.04503032 4.648441e-05 4.140863e-05 0.0001371369 233 1 1 255 
0.4681102 0.4139237 0.0205956 5.308142e-05 2.412962e-05 0.0001388601 162 0 0 255 
0.4716673 0.3796768 0.02486126 6.796069e-05 2.152224e-05 0.0001326655 162 0 0 255 
0.4277337 0.3552904 0.05181668 5.813293e-05 4.121503e-05 0.0001326796 233 1 1 255 
0.4044386 0.4296756 0.03742904 3.921814e-05 3.876979e-05 0.0001401458 233 1 1 255 
-0.06901794 0.3673672 0.1818589 4.438918e-05 2.981694e-06 0.0001438844 104 255 150 255 
-0.1342179 0.3715921 0.1962141 7.747308e-06 -3.33455e-05 0.0001466631 34 255 222 255 
-0.1218093 0.4359399 0.2168084 2.468396e-05 -5.470646e-05 0.0001381301 34 255 222 255 
-0.03071667 -0.09294312 0.006360308 1.797374e-06 -1.494253e-05 0.0001498516 104 255 150 255 
-0.09212354 -0.09287754 0.007393498 3.074144e-06 -1.653064e-05 0.0001496639 34 255 222 255 
-0.09233374 -0.03168148 0.01627217 8.64473e-06 -3.142793e-05 0.0001470359 34 255 222 255 
0.4601439 -0.09203111 0.004953466 5.763057e-06 -9.868913e-06 0.0001501712 162 0 0 255 
0.3981914 -0.09266838 0.006859479 3.240716e-06 -1.715612e-05 0.00014959 233 1 1 255 
0.3987617 -0.03174143 0.01510121 1.358245e-05 -2.103994e-05 0.0001485087 233 1 1 255 
0.2139631 -0.09359998 0.005919341 -1.727654e-06 -1.743877e-05 0.0001495825 255 156 1 255 
0.1524149 -0.09343838 0.005261288 -1.071263e-06 -1.437507e-05 0.000149914 254 227 0 255 
0.1501824 -0.03393569 0.0137668 -5.288008e-06 -3.206795e-05 0.0001470568 254 227 0 255 
0.2147625 -0.3374839 1.07044e-06 5.219145e-10 -9.988533e-09 0.0001506055 255 156 1 255 
0.1534018 -0.3374839 1.307192e-06 8.286883e-10 -1.165573e-08 0.0001506055 254 227 0 255 
0.1533987 -0.2761298 2.514744e-05 7.968638e-09 -1.683248e-07 0.0001506054 254 227 0 255 
0.4602053 -0.3374839 2.144496e-06 -1.320771e-08 -1.890338e-08 0.0001506055 162 0 0 255 
0.3988446 -0.3374839 5.983492e-07 -2.740253e-10 -6.624978e-09 0.0001506055 233 1 1 255 
0.3988418 -0.2761248 1.932926e-05 -5.652101e-09 -1.523157e-07 0.0001506054 233 1 1 255 
-0.2767509 -0.09403245 0.006137199 -3.45462e-06 -1.563615e-05 0.0001497518 0 108 255 255 
-0.3381115 -0.09352379 0.004623602 -3.799972e-06 -1.254459e-05 0.000150034 2 34 255 255 
-0.3384259 -0.03310148 0.01141108 -8.393538e-06 -2.09358e-05 0.0001489068 2 34 255 255 
-0.2761232 -0.3374839 5.847504e-07 -1.822636e-09 -7.367947e-09 0.0001506055 0 108 255 255 
-0.3374839 -0.3374839 1.501865e-07 -6.558215e-10 -2.044855e-09 0.0001506055 2 34 255 255 
-0.3374849 -0.2761303 8.94141e-06 -2.409474e-08 -8.390074e-08 0.0001506054 2 34 255 255 
-0.03068027 -0.3374844 3.766591e-06 2.26513e-09 -3.090161e-08 0.0001506055 104 255 150 255 
-0.09204107 -0.3374849 4.07148e-06 -9.975423e-10 -3.479471e-08 0.0001506055 34 255 222 255 
-0.09204068 -0.2761487 6.726074e-05 1.115272e-08 -4.116882e-07 0.0001506049 34 255 222 255 
-0.2869129 0.389413 0.1563048 -4.284721e-05 -3.101497e-05 0.0001410113 0 108 255 255 
-0.3459085 0.391327 0.1426132 -4.1312e-05 -5.547489e-06 0.0001447223 2 34 255 255 
-0.3442664 0.4545983 0.1340243 -4.239463e-05 3.784431e-05 0.0001394723 2 34 255 255 
-0.2775683 0.1536056 0.06539115 -4.065512e-05 -5.546226e-05 0.0001339892 0 108 255 255 
-0.337129 0.1541515 0.05277152 -1.882992e-05 -4.853643e-05 0.0001413211 2 34 255 255 
-0.3393073 0.2137923 0.07942995 -2.116742e-05 -6.677231e-05 0.0001333245 2 34 255 255 
-0.05397971 0.1444383 0.1935927 -4.402371e-05 -6.429612e-05 0.0001288795 104 255 150 255 
-0.1169245 0.1477256 0.1529645 -9.842217e-05 -6.07279e-05 9.647386e-05 34 255 222 255 
-0.1304825 0.2008582 0.17066 -9.07232e-05 -6.073164e-05 0.0001037448 34 255 222 255 
0.2247771 0.3412233 0.1081516 4.072126e-05 2.832452e-05 0.0001422023 255 156 1 255 
0.1645824 0.3465346 0.1257762 4.177579e-05 4.809188e-05 0.0001364697 254 227 0 255 
0.1512931 0.4030083 0.1172285 3.237543e-05 7.099743e-06 0.000146913 254 227 0 255 
0.205312 0.1463405 0.09020944 8.456546e-05 -5.944362e-05 0.0001095315 255 156 1 255 
0.1326801 0.1452764 0.1537345 8.822235e-05 -7.065315e-05 9.953369e-05 254 227 0 255 
0.1334547 0.1965413 0.1759964 7.767414e-05 -2.7711e-05 0.0001260192 254 227 0 255 
0.462988 0.1475734 0.01830624 2.506851e-05 -1.280026e-05 0.0001479518 162 0 0 255 
0.4063342 0.1452676 0.02706541 2.14153e-05 -2.051156e-05 0.0001476573 233 1 1 255 
0.4153859 0.1969379 0.03625531 3.589483e-05 -4.025987e-05 0.0001406155 233 1 1 255 
0.3459733 0.1449129 0.03526069 2.266614e-05 -2.83367e-05 0.0001461687 254 19 0 255 
0.2784733 0.1459843 0.05022788 4.105442e-05 -3.648398e-05 0.0001402336 255 92 2 255 
0.2882617 0.1958283 0.06931259 4.881754e-05 -7.45162e-05 0.0001214339 255 92 2 255 
0.3398202 0.02648013 0.03177373 2.042623e-05 -1.915584e-05 0.0001479792 254 19 0 255 
0.2760841 0.02426528 0.03785352 1.298283e-05 -3.741487e-05 0.0001453051 255 92 2 255 
0.2757626 0.08695672 0.04443572 3.310422e-05 -4.130561e-06 0.0001468641 255 92 2 255 
0.4612352 0.03089582 0.01231604 2.038785e-05 -6.323103e-06 0.0001490851 162 0 0 255 
0.4005975 0.02947807 0.02164373 2.538375e-05 -9.685758e-06 0.0001481346 233 1 1 255 
0.4023799 0.08929937 0.02329708 2.225184e-05 -4.608509e-06 0.0001488812 233 1 1 255 
0.07010742 0.1428911 0.195012 4.726138e-05 -6.136945e-05 0.0001291594 240 254 17 255 
0.008850193 0.1427809 0.2020878 -3.084888e-06 -5.808434e-05 0.0001389198 167 255 88 255 
0.006943848 0.1977376 0.2124248 -2.965052e-07 -1.62061e-06 0.0001505965 167 255 88 255 
0.08432587 0.02472683 0.05592288 4.066655e-05 -0.000115874 8.71863e-05 240 254 17 255 
0.0232585 0.02441766 0.07023521 -4.772925e-06 -0.0001274967 8.002393e-05 167 255 88 255 
0.01203557 0.08333698 0.1576956 -5.478185e-06 -0.0001086021 0.0001041997 167 255 88 255 
0.2100234 0.02415769 0.04140317 -1.847455e-06 -6.01964e-05 0.0001380398 255 156 1 255 
0.1452314 0.0257615 0.0393547 3.897439e-06 -9.157958e-05 0.000119499 254 227 0 255 
0.1392248 0.08613302 0.09720264 6.424973e-05 -9.140754e-05 0.0001009883 254 227 0 255 
0.09682053 0.3578974 0.136528 2.716275e-05 6.76555e-05 0.0001317836 240 254 17 255 
0.01384895 0.3643208 0.1545695 4.275411e-05 5.104897e-05 0.0001350855 167 255 88 255 
0.00189151 0.4253657 0.1563102 5.80941e-05 -4.715402e-05 0.0001307042 167 255 88 255 
0.07738008 0.2496119 0.1980405 3.757739e-05 3.325236e-05 0.0001420008 240 254 17 255 
0.007178182 0.251055 0.2063351 4.526261e-06 3.368301e-05 0.0001467207 167 255 88 255 
0.01116643 0.3056869 0.1851106 1.619388e-05 6.944226e-05 0.0001326557 167 255 88 255 
0.212897 0.2413448 0.1271172 7.546155e-05 4.980285e-06 0.0001302412 255 156 1 255 
0.1393414 0.2455394 0.172165 7.309559e-05 3.035429e-05 0.0001281314 254 227 0 255 
0.1519521 0.2938927 0.1502451 7.077534e-05 3.799669e-05 0.0001273935 254 227 0 255 
-0.1701391 0.1508819 0.1070505 -7.03154e-05 -4.453303e-05 0.0001255172 0 242 255 255 
-0.2227996 0.1520921 0.08460231 -5.219174e-05 -5.702137e-05 0.000129254 2 172 255 255 
-0.2269396 0.2093839 0.1092821 -4.929073e-05 -6.712128e-05 0.0001254877 2 172 255 255 
-0.1609338 0.02937373 0.0489565 -2.807513e-05 -7.907222e-05 0.0001250655 0 242 255 255 
-0.2172664 0.03038434 0.03466278 -2.933624e-05 -5.283243e-05 0.0001379497 2 172 255 255 
-0.2204311 0.09268624 0.06068507 -5.120548e-05 -5.384893e-05 0.0001309973 2 172 255 255 
-0.03511404 0.0264324 0.06444132 -1.738501e-05 -0.0001213449 8.749389e-05 104 255 150 255 
-0.09927516 0.02805874 0.05680818 -1.196704e-05 -0.0001053771 0.0001069321 34 255 222 255 
-0.1083659 0.08918545 0.1137703 -5.959971e-05 -9.438719e-05 0.0001010987 34 255 222 255 
-0.4003146 0.1538949 0.04435928 -2.155476e-05 -5.554912e-05 0.0001383174 0 0 246 255 
-0.4667996 0.1539296 0.03294232 -1.728243e-05 -4.664981e-05 0.0001421518 0 0 176 255 
-0.4640582 0.2153987 0.06066998 -2.064096e-05 -5.858636e-05 0.0001371991 0 0 176 255 
-0.3984072 0.02999956 0.02055386 -4.509809e-06 -2.190252e-05 0.0001489361 0 0 246 255 
-0.463535 0.03144718 0.0144638 -2.287215e-05 -3.066767e-05 0.0001456653 0 0 176 255 
-0.468054 0.09148671 0.02369044 -1.471318e-05 -1.460879e-05 0.0001491714 0 0 176 255 
-0.2760184 0.02992313 0.02838737 -8.723204e-06 -2.840823e-05 0.0001476445 0 108 255 255 
-0.3364347 0.0295894 0.02313067 -1.315662e-05 -3.252687e-05 0.0001464613 2 34 255 255 
-0.3352681 0.0930549 0.03600578 -1.815091e-05 -3.018974e-05 0.0001464279 2 34 255 255 
-0.4040743 0.3923819 0.1174365 -7.202729e-05 7.824401e-06 0.0001320335 0 0 246 255 
-0.461933 0.3942984 0.08829231 -5.850765e-05 1.405156e-05 0.0001380631 0 0 176 255 
-0.4608056 0.4558395 0.07914279 -6.122246e-05 2.650018e-05 0.0001350243 0 0 176 255 
-0.4015647 0.274265 0.0947362 -3.506015e-05 -5.214429e-05 0.0001368713 0 0 246 255 
-0.463055 0.274754 0.08099908 -2.599209e-05 -3.252571e-05 0.000144736 0 0 176 255 
-0.462528 0.3341522 0.08955458 -4.844455e-05 -8.669e-06 0.0001423376 0 0 176 255 
-0.2853945 0.2701939 0.1173627 -4.118157e-05 -6.626558e-05 0.0001288214 0 108 255 255 
-0.3416782 0.2729892 0.1075401 -2.204828e-05 -6.526699e-05 0.0001339257 2 34 255 255 
-0.3454778 0.331339 0.1316796 -2.806775e-05 -4.418955e-05 0.0001412143 2 34 255 255 
-0.1534018 -0.337485 3.05623e-06 -3.845244e-09 -2.771671e-08 0.0001506055 0 242 255 255 
-0.2147625 -0.3374843 1.562538e-06 -3.469933e-09 -1.646746e-08 0.0001506055 2 172 255 255 
-0.2147648 -0.2761509 4.088222e-05 -5.541409e-08 -2.92323e-07 0.0001506052 2 172 255 255 
-0.1534018 -0.4602053 0 0 0 0.0001506055 0 242 255 255 
-0.2147625 -0.4602053 0 0 0 0.0001506055 2 172 255 255 
-0.2147625 -0.3988446 1.890536e-08 -6.65011e-11 -2.842123e-10 0.0001506055 2 172 255 255 
-0.03068036 -0.4602053 0 -7.826951e-14 -1.633797e-11 0.0001506055 104 255 150 255 
-0.09204107 -0.4602053 0 -4.597833e-13 -1.188577e-11 0.0001506055 34 255 222 255 
-0.09204107 -0.3988446 9.600779e-08 -8.458621e-11 -1.169937e-09 0.0001506055 34 255 222 255 
-0.3988446 -0.3374839 2.299039e-08 -1.438721e-10 -3.889623e-10 0.0001506055 0 0 246 255 
-0.4602053 -0.3374839 1.791082e-09 -1.532831e-11 -4.406537e-11 0.0001506055 0 0 176 255 
-0.4602053 -0.2761232 5.001525e-07 -2.802128e-09 -7.876643e-09 0.0001506055 0 0 176 255 
-0.3988446 -0.4602053 0 0 0 0.0001506055 0 0 246 255 
-0.4602053 -0.4602053 0 0 0 0.0001506055 0 0 176 255 
-0.4602053 -0.3988446 0 0 0 0.0001506055 0 0 176 255 
-0.2761232 -0.4602053 0 0 0 0.0001506055 0 108 255 255 
-0.3374839 -0.4602053 0 0 0 0.0001506055 2 34 255 255 
-0.3374839 -0.3988446 0 -1.417092e-12 -1.167866e-11 0.0001506055 2 34 255 255 
-0.3992613 -0.09272581 0.003313515 -3.213449e-06 -1.018505e-05 0.0001502263 0 0 246 255 
-0.4604647 -0.09232485 0.001751648 -4.718844e-06 -5.963504e-06 0.0001504134 0 0 176 255 
-0.4608695 -0.03084623 0.005893651 -1.330556e-05 -1.510053e-05 0.0001492546 0 0 176 255 
-0.398866 -0.214811 7.889854e-05 -1.640863e-07 -5.51932e-07 0.0001506044 0 0 246 255 
-0.4602123 -0.2147787 2.617223e-05 -1.033549e-07 -2.140861e-07 0.0001506053 0 0 176 255 
-0.46029 -0.1535422 0.0003390767 -1.063773e-06 -1.672508e-06 0.0001505924 0 0 176 255 
-0.2761622 -0.2149474 0.0002897627 -3.578222e-07 -1.592504e-06 0.0001505966 0 108 255 255 
-0.3375198 -0.2148753 0.0001635545 -2.682408e-07 -9.980064e-07 0.0001506019 2 34 255 255 
-0.3377105 -0.1539896 0.001209767 -1.357901e-06 -4.937472e-06 0.0001505184 2 34 255 255 
0.3374839 -0.3374839 6.953519e-07 4.271005e-10 -7.266333e-09 0.0001506055 254 19 0 255 
0.2761232 -0.3374839 8.726843e-07 5.069395e-10 -8.543907e-09 0.0001506055 255 92 2 255 
0.2761209 -0.2761286 2.129255e-05 3.743479e-09 -1.550193e-07 0.0001506054 255 92 2 255 
0.3374839 -0.4602053 0 0 0 0.0001506055 254 19 0 255 
0.2761232 -0.4602053 0 0 0 0.0001506055 255 92 2 255 
0.2761232 -0.3988446 1.421998e-08 1.664005e-11 -1.966341e-10 0.0001506055 255 92 2 255 
0.4602053 -0.4602053 0 0 0 0.0001506055 162 0 0 255 
0.3988446 -0.4602053 0 0 0 0.0001506055 233 1 1 255 
0.3988446 -0.3988446 6.185123e-09 -2.537645e-12 -1.002043e-10 0.0001506055 233 1 1 255 
0.09204107 -0.3374839 1.797071e-06 1.754158e-09 -1.517984e-08 0.0001506055 240 254 17 255 
0.03068036 -0.3374839 2.69257e-06 3.011635e-09 -2.230458e-08 0.0001506055 167 255 88 255 
0.03068088 -0.2761331 4.123699e-05 3.422564e-08 -2.516039e-07 0.0001506053 167 255 88 255 
0.09204107 -0.4602053 0 3.185006e-13 -7.975644e-12 0.0001506055 240 254 17 255 
0.03068036 -0.4602053 0 3.207297e-13 -1.35163e-11 0.0001506055 167 255 88 255 
0.03068036 -0.3988446 7.863436e-08 9.433925e-11 -8.607777e-10 0.0001506055 167 255 88 255 
0.2147625 -0.4602053 0 0 0 0.0001506055 255 156 1 255 
0.1534018 -0.4602053 0 0 0 0.0001506055 254 227 0 255 
0.1534018 -0.3988446 2.936638e-08 3.455431e-11 -3.638506e-10 0.0001506055 254 227 0 255 
0.09138761 -0.09337451 0.005243261 7.958566e-07 -1.390194e-05 0.0001499604 240 254 17 255 
0.03043253 -0.09321061 0.005735912 1.327413e-06 -1.469897e-05 0.0001498806 167 255 88 255 
0.03000085 -0.03375048 0.01494985 1.636259e-06 -3.90489e-05 0.0001454459 167 255 88 255 
0.092018 -0.2148334 0.000276659 1.129433e-07 -1.347686e-06 0.0001505994 240 254 17 255 
0.03067529 -0.2148388 0.0003419456 2.089923e-07 -1.588243e-06 0.0001505969 167 255 88 255 
0.0306221 -0.1537596 0.001728239 7.014081e-07 -6.009e-06 0.0001504839 167 255 88 255 
0.2147267 -0.2148315 0.0002473276 -6.820119e-09 -1.299668e-06 0.0001505999 255 156 1 255 
0.153365 -0.2148322 0.0002495959 2.574575e-08 -1.266528e-06 0.0001506002 254 227 0 255 
0.1531651 -0.1537974 0.001448231 -7.551507e-08 -5.473533e-06 0.000150506 254 227 0 255 
0.336971 -0.0933267 0.007166059 -9.787268e-07 -2.024618e-05 0.0001492352 254 19 0 255 
0.2756592 -0.09361524 0.006499822 -1.422241e-06 -1.909644e-05 0.0001493831 255 92 2 255 
0.2756563 -0.03480922 0.01832522 -4.928344e-07 -4.213358e-05 0.0001445909 255 92 2 255 
0.3374445 -0.2148131 0.0002615979 -2.533119e-08 -1.483826e-06 0.0001505982 254 19 0 255 
0.2760922 -0.2148266 0.0002515562 -1.769188e-08 -1.371098e-06 0.0001505992 255 92 2 255 
0.2759531 -0.15381 0.001649758 -3.535454e-07 -6.655236e-06 0.0001504579 255 92 2 255 
0.4602081 -0.2147636 0.0003408666 -5.133448e-07 -1.618572e-06 0.0001505959 162 0 0 255 
0.3988006 -0.2147901 0.0002667958 -2.196487e-08 -1.529302e-06 0.0001505977 233 1 1 255 
0.3985772 -0.1535864 0.001848916 2.983261e-07 -7.363028e-06 0.0001504251 233 1 1 255 
-0.15363 -0.09318856 0.008226612 -9.919191e-08 -1.955718e-05 0.0001493302 0 242 255 255 
-0.2151342 -0.09372511 0.007396646 -2.641795e-06 -1.733615e-05 0.000149581 2 172 255 255 
-0.2152442 -0.03296069 0.01710943 -2.297074e-06 -3.57044e-05 0.000146294 2 172 255 255 
-0.1534185 -0.2149592 0.0005515955 -1.447333e-07 -2.576812e-06 0.0001505834 0 242 255 255 
-0.214793 -0.2149807 0.0004397981 -3.652899e-07 -2.207331e-06 0.0001505889 2 172 255 255 
-0.2149093 -0.1541973 0.002352465 -1.215177e-06 -8.09144e-06 0.000150383 2 172 255 255 
-0.03067623 -0.2148599 0.0004421718 2.756122e-07 -1.971057e-06 0.0001505923 104 255 150 255 
-0.09204264 -0.2149061 0.0005420074 1.808525e-07 -2.412484e-06 0.000150586 34 255 222 255 
-0.09206199 -0.1538399 0.002493856 9.575131e-07 -7.928798e-06 0.0001503936 34 255 222 255 
-0.1853685 0.3774915 0.1925628 -3.421352e-05 -4.2785e-05 0.0001402886 0 242 255 255 
-0.2335816 0.3839949 0.177441 -6.128918e-05 -4.405203e-05 0.0001303268 2 172 255 255 
-0.2353846 0.4473725 0.1908307 -8.1948e-05 -7.516077e-06 0.000126135 2 172 255 255 
-0.1938045 0.2582352 0.1601014 -7.001084e-05 -6.63524e-05 0.0001156626 0 242 255 255 
-0.2366596 0.264654 0.1382533 -7.085067e-05 -6.564459e-05 0.0001155551 2 172 255 255 
-0.2385651 0.3228368 0.1569785 -7.025584e-05 -2.961394e-05 0.0001298812 2 172 255 255 
-0.07014889 0.2515858 0.2030081 -1.777416e-05 1.486956e-05 0.0001488119 104 255 150 255 
-0.1416888 0.2532789 0.1856743 -5.571865e-05 -3.089346e-05 0.0001364662 34 255 222 255 
-0.1432314 0.3098219 0.1896897 -2.138307e-05 -4.278449e-06 0.0001490183 34 255 222 255 
0.3724554 0.3417804 0.07438472 3.419661e-05 4.112456e-05 0.0001407884 254 19 0 255 
0.2971376 0.3405147 0.09043857 3.123634e-05 3.046724e-05 0.0001441459 255 92 2 255 
0.2752503 0.4005944 0.08033148 4.026015e-05 3.948058e-05 0.000139651 255 92 2 255 
0.3765439 0.2397617 0.06616158 3.920158e-05 -6.476451e-05 0.0001301952 254 19 0 255 
0.3003505 0.2401461 0.08815124 4.46016e-05 -4.950842e-05 0.0001350615 255 92 2 255 
0.3065068 0.2867101 0.09480225 3.236664e-05 -1.368223e-06 0.00014708 255 92 2 255 
0.4709927 0.2580396 0.02855583 7.462892e-05 -1.633232e-05 0.0001297913 162 0 0 255 
0.4294538 0.2454256 0.04810935 6.341869e-05 -5.091127e-05 0.0001267601 233 1 1 255 
0.4404779 0.2940864 0.05698803 8.950593e-05 -1.092648e-05 0.0001206288 233 1 1 255 
0.4747006 0.3157263 0.02999223 9.441428e-05 2.647879e-06 0.000117307 162 0 0 255 
0.3885477 0.2850937 0.07834407 3.485301e-05 -1.475749e-05 0.0001457721 254 19 0 255 
0.3418825 0.4114136 0.05941013 3.527317e-05 4.398049e-05 0.000139655 254 19 0 255 
-0.07253435 0.3069675 0.1922254 7.479418e-06 3.518002e-05 0.0001462478 104 255 150 255 
-0.1950349 0.315539 0.176662 -5.299711e-05 -2.198162e-05 0.0001392484 0 242 255 255 
-0.1769579 0.4411265 0.2162534 -3.593495e-05 -4.143998e-05 0.000140262 0 242 255 255 
-0.03068465 -0.1537541 0.00207281 9.883773e-07 -6.77233e-06 0.0001504499 104 255 150 255 
-0.1534811 -0.1540223 0.002678206 -1.669078e-07 -8.748354e-06 0.0001503511 0 242 255 255 
-0.1540879 -0.03183737 0.02170995 -4.421807e-06 -4.575563e-05 0.0001434185 0 242 255 255 
0.4601832 -0.1534122 0.001701741 1.687022e-07 -5.441981e-06 0.000150507 162 0 0 255 
0.3372601 -0.1537388 0.001815038 -3.529454e-07 -7.423687e-06 0.000150422 254 19 0 255 
0.3377094 -0.03370417 0.01854797 3.620003e-06 -3.494521e-05 0.0001464505 254 19 0 255 
0.2145481 -0.1538182 0.001531848 -2.694403e-07 -6.0228e-06 0.0001504847 255 156 1 255 
0.0918806 -0.1537827 0.001505545 3.62741e-07 -5.483893e-06 0.0001505052 240 254 17 255 
0.09016132 -0.03407268 0.01383344 3.413739e-06 -3.563068e-05 0.0001462902 240 254 17 255 
0.2147625 -0.3988446 2.05459e-08 1.916312e-11 -2.680946e-10 0.0001506055 255 156 1 255 
0.09204107 -0.3988446 4.769102e-08 6.970592e-11 -5.588689e-10 0.0001506055 240 254 17 255 
0.09203955 -0.2761306 3.052599e-05 1.986317e-08 -1.948311e-07 0.0001506054 240 254 17 255 
0.4602053 -0.3988446 4.545958e-08 -4.326035e-10 -5.770539e-10 0.0001506055 162 0 0 255 
0.3374839 -0.3988446 8.991222e-09 1.263696e-11 -1.344267e-10 0.0001506055 254 19 0 255 
0.3374811 -0.2761272 1.999418e-05 3.447642e-09 -1.53029e-07 0.0001506054 254 19 0 255 
-0.2763398 -0.154212 0.001789258 -1.471257e-06 -6.675809e-06 0.0001504502 0 108 255 255 
-0.3990107 -0.1537077 0.0007425504 -1.016242e-06 -3.337658e-06 0.0001505651 0 0 246 255 
-0.3992698 -0.03145537 0.009709554 -4.018628e-06 -2.23641e-05 0.0001488815 0 0 246 255 
-0.2761232 -0.3988446 4.32312e-09 -2.248368e-11 -7.896304e-11 0.0001506055 0 108 255 255 
-0.3988446 -0.3988446 0 0 0 0.0001506055 0 0 246 255 
-0.3988446 -0.2761243 2.751181e-06 -1.024649e-08 -3.149956e-08 0.0001506055 0 0 246 255 
-0.03068036 -0.3988446 1.055316e-07 3.529332e-11 -1.216976e-09 0.0001506055 104 255 150 255 
-0.1534018 -0.3988446 5.408051e-08 -1.214986e-10 -7.213143e-10 0.0001506055 0 242 255 255 
-0.153403 -0.2761545 6.118217e-05 -3.89526e-08 -4.004619e-07 0.0001506049 0 242 255 255 
-0.2886315 0.3285383 0.1395373 -2.838338e-05 -3.780616e-05 0.0001429933 0 108 255 255 
-0.4026957 0.333465 0.1139202 -5.767212e-05 -3.061267e-05 0.0001357159 0 0 246 255 
-0.4041584 0.4531856 0.1080671 -7.060562e-05 2.868885e-05 0.0001298992 0 0 246 255 
-0.2762893 0.09313261 0.04498687 -2.801518e-05 -4.362366e-05 0.0001414006 0 108 255 255 
-0.398773 0.09180309 0.02890956 -1.250663e-05 -2.097131e-05 0.0001486129 0 0 246 255 
-0.4004659 0.2146367 0.0716862 -2.163561e-05 -5.880802e-05 0.0001369508 0 0 246 255 
-0.04428711 0.08631136 0.1458407 -4.404799e-05 -0.0001144578 8.741397e-05 104 255 150 255 
-0.1665677 0.09109906 0.0835108 -5.725654e-05 -6.372113e-05 0.0001238681 0 242 255 255 
-0.1799136 0.205715 0.1279978 -6.823122e-05 -7.739698e-05 0.0001097097 0 242 255 255 
0.22202 0.288078 0.1177326 5.056354e-05 1.73083e-05 0.000140804 255 156 1 255 
0.08838373 0.3021953 0.1739096 3.463456e-05 7.197927e-05 0.0001276771 240 254 17 255 
0.08196373 0.4159762 0.1297758 2.468746e-05 -3.519449e-05 0.0001443395 240 254 17 255 
0.2072338 0.08649681 0.06418623 5.010264e-05 -4.28443e-05 0.0001354109 255 156 1 255 
0.07384545 0.08350005 0.1426152 5.638865e-05 -0.0001073357 8.933851e-05 240 254 17 255 
0.07175792 0.1972109 0.2047704 3.901238e-05 -2.042188e-06 0.0001454506 240 254 17 255 
0.4618519 0.09050897 0.01468839 2.082554e-05 -7.177432e-06 0.0001489859 162 0 0 255 
0.3411366 0.08805376 0.03232675 2.258838e-05 3.104928e-06 0.0001488695 254 19 0 255 
0.3583463 0.1947453 0.04905992 3.110485e-05 -5.773591e-05 0.0001355768 254 19 0 255 
0.4660055 0.202901 0.02350972 4.174401e-05 -1.744338e-05 0.0001436495 162 0 0 255 
0.2067795 0.1968913 0.1190651 8.528489e-05 -6.152889e-05 0.0001078086 255 156 1 255 
0.2111037 0.3980838 0.1006911 4.460722e-05 2.771949e-05 0.0001411518 255 156 1 255 
-0.06285856 0.1986098 0.2045658 -3.496014e-05 -1.43702e-05 0.0001457851 104 255 150 255 
-0.2814531 0.2120003 0.0916938 -3.868743e-05 -6.176795e-05 0.0001317953 0 108 255 255 
-0.2877072 0.4549553 0.151996 -6.658098e-05 4.251041e-05 0.0001282257 0 108 255 255 
-0.03067895 -0.2761395 5.657387e-05 3.903271e-08 -3.374329e-07 0.0001506051 104 255 150 255 
-0.2761251 -0.2761408 2.15376e-05 -3.868988e-08 -1.685576e-07 0.0001506054 0 108 255 255 
-0.2774915 -0.03448075 0.01517507 -5.845066e-06 -3.312391e-05 0.0001468014 0 108 255 255 
0.4602065 -0.2761232 3.850127e-05 -1.37559e-07 -2.476486e-07 0.0001506052 162 0 0 255 
0.2147594 -0.2761293 2.301006e-05 4.484112e-09 -1.600392e-07 0.0001506054 255 156 1 255 
0.2125544 -0.0347457 0.01731224 -7.187307e-06 -4.328157e-05 0.0001440731 255 156 1 255 
0.460466 -0.03046074 0.00916506 1.484591e-05 -9.71478e-06 0.0001495568 162 0 0 255 
-0.03066464 -0.03255723 0.01504534 -9.740786e-08 -3.492363e-05 0.0001465003 104 255 150 255 
-0.06703388 0.430846 0.1940902 6.482293e-05 -5.165939e-05 0.000125743 104 255 150 255 
0.4637796 0.4491709 0.0157732 4.178289e-05 2.55443e-05 0.0001424208 162 0 0 255 
-0.4908857 -0.4755455 0 0 0 0.0001506055 0 0 146 255 
0.4755455 -0.4908857 0 0 0 0.0001506055 141 1 0 255 
0.492943 0.4744561 0.004296289 3.303948e-05 1.965692e-05 0.000145616 0 0 146 255 
-0.4740234 0.4881163 0.06764971 -4.805099e-05 2.342194e-05 0.0001407996 0 1 154 255 
-0.4936808 0.01525639 0.007257703 -1.954978e-05 -1.925818e-05 0.0001480842 0 0 146 255 
-0.01534018 -0.4908857 0 0 0 0.0001506055 120 254 129 255 
0.4917521 -0.01488332 0.006625286 1.629176e-05 -6.016142e-06 0.0001496008 0 0 146 255 
-0.02282055 0.4568735 0.184412 5.634761e-05 -7.121416e-05 0.0001201478 152 255 102 255 
-0.03692035 0.4436608 0.1835558 6.312999e-05 -6.230755e-05 0.0001217144 137 255 117 255 
-0.0004831248 -0.01839713 0.01965184 -3.843799e-06 -5.560348e-05 0.0001399124 137 255 117 255 
-0.4771917 5.289539e-05 0.007501248 -1.839465e-05 -1.794437e-05 0.0001483969 0 1 154 255 
0.01413871 -0.004768964 0.02726958 -4.653578e-06 -9.785461e-05 0.0001143889 152 255 102 255 
-0.4908867 -0.230106 5.594109e-06 -2.580367e-08 -5.568767e-08 0.0001506055 0 0 146 255 
0.2301027 -0.4908857 0 0 0 0.0001506055 254 138 1 255 
0.4906781 0.2214533 0.01719519 4.69018e-05 -6.101935e-06 0.000142986 0 0 146 255 
-0.2533152 0.4828065 0.1726081 -0.0001056417 1.983052e-05 0.0001054922 1 154 255 255 
-0.4947235 0.2597643 0.07328808 -1.693766e-05 -3.539988e-05 0.0001454028 0 0 146 255 
-0.260783 -0.4908857 0 0 0 0.0001506055 2 124 255 255 
0.4909 -0.2607799 0.0001439019 -4.982506e-07 -6.460161e-07 0.0001506033 0 0 146 255 
0.2476671 0.4305906 0.08077665 4.690683e-05 3.785094e-05 0.0001380184 254 108 0 255 
-0.02869162 0.2114127 0.2104971 -1.401257e-05 3.792533e-06 0.0001499042 137 255 117 255 
1.616619e-06 -0.2608047 8.603629e-05 6.659018e-08 -4.82196e-07 0.0001506047 137 255 117 255 
-0.230815 -0.001821025 0.02473668 -6.527373e-06 -3.101477e-05 0.0001472327 1 154 255 255 
0.2598769 -0.005901845 0.02835865 3.608176e-06 -5.302109e-05 0.0001409175 254 108 0 255 
0.243974 -0.02049688 0.02303887 -6.971143e-07 -5.086159e-05 0.0001417555 255 121 1 255 
0.2454371 -0.2607948 4.283381e-05 4.895492e-09 -2.844989e-07 0.0001506052 255 121 1 255 
0.01534114 -0.2454752 0.0001366471 1.003999e-07 -7.21357e-07 0.0001506037 152 255 102 255 
0.2607726 -0.2454642 7.962269e-05 3.317348e-09 -4.989132e-07 0.0001506046 254 108 0 255 
-0.2460308 -0.01819964 0.02055605 -7.553042e-06 -3.626843e-05 0.000145978 0 142 254 255 
-0.2454481 -0.2608269 6.110024e-05 -8.933173e-08 -4.208192e-07 0.0001506048 0 142 254 255 
-0.4755455 -0.245444 2.874504e-06 -1.194447e-08 -3.34744e-08 0.0001506055 0 1 154 255 
-0.2301136 -0.2455259 0.0001320783 -1.575282e-07 -8.12556e-07 0.0001506032 1 154 255 255 
-0.2642331 0.4684878 0.1646924 -9.912348e-05 2.637951e-05 0.0001102754 0 142 254 255 
-0.2546747 0.225144 0.106204 -4.886922e-05 -6.106615e-05 0.0001287041 0 142 254 255 
-0.4791929 0.2452361 0.07066738 -1.679121e-05 -4.88054e-05 0.0001414853 0 1 154 255 
-0.2436389 0.2382327 0.1182566 -6.020393e-05 -6.973612e-05 0.0001191401 1 154 255 255 
0.2373697 0.4136972 0.08865197 4.629338e-05 3.432894e-05 0.0001391418 255 121 1 255 
0.2501458 0.2077556 0.09544142 6.776441e-05 -6.524869e-05 0.0001176121 255 121 1 255 
-0.01135374 0.2245557 0.2107354 -5.089756e-06 1.522584e-05 0.0001497474 152 255 102 255 
0.2736796 0.2184937 0.08908222 5.711949e-05 -6.329678e-05 0.0001241486 254 108 0 255 
-0.4908857 -0.3528241 0 0 -1.455024e-11 0.0001506055 0 0 146 255 
0.3528241 -0.4908857 0 0 0 0.0001506055 255 8 0 255 
0.4924924 0.3439537 0.01535363 8.788706e-05 6.585791e-06 0.0001221249 0 0 146 255 
-0.3596809 0.4853044 0.1203908 -4.74598e-05 4.037576e-05 0.0001371108 0 21 252 255 
-0.502288 0.1377557 0.02631441 -1.21768e-05 -2.969694e-05 0.0001471456 0 0 146 255 
-0.1380616 -0.4908857 0 0 0 0.0001506055 0 251 254 255 
0.4911704 -0.1379539 0.002181049 3.563325e-07 -4.829139e-06 0.0001505276 0 0 146 255 
0.1219887 0.4341421 0.1257064 3.895784e-05 -1.758012e-05 0.0001444134 255 238 0 255 
-0.03042006 0.3207472 0.1833442 2.083029e-05 5.494095e-05 0.0001386708 137 255 117 255 
-3.823062e-05 -0.1385315 0.002611333 1.026414e-06 -8.129811e-06 0.0001503824 137 255 117 255 
-0.3531522 -0.001759553 0.01522045 -7.307007e-06 -2.451738e-05 0.0001484167 0 21 252 255 
0.1328684 -0.004102882 0.02191378 -4.47773e-07 -5.637938e-05 0.0001396538 255 238 0 255 
-0.4910212 -0.1074872 0.0005491546 -2.986273e-06 -2.47379e-06 0.0001505555 0 0 146 255 
0.1073812 -0.4908857 0 0 0 0.0001506055 247 255 7 255 
0.4914429 0.1055306 0.01137401 2.022183e-05 -7.148165e-06 0.0001490704 0 0 146 255 
-0.1302704 0.4693497 0.2296319 8.692598e-06 -4.45489e-05 0.0001436031 19 255 240 255 
-0.4915715 0.3797292 0.0781528 -5.266715e-05 1.25022e-05 0.0001405414 0 0 146 255 
-0.3835045 -0.4908857 0 0 0 0.0001506055 0 0 251 255 
0.4908857 -0.3835045 6.666609e-07 -4.850496e-09 -5.383212e-09 0.0001506055 0 0 146 255 
0.3770945 0.4639511 0.03509299 3.454846e-05 3.806064e-05 0.000141562 240 0 0 255 
-0.01777874 0.09971642 0.1705213 -2.13239e-05 -0.0001022689 0.0001084821 137 255 117 255 
0 -0.3835045 2.503787e-07 2.110056e-10 -2.624305e-09 0.0001506055 137 255 117 255 
-0.1099537 -0.001582418 0.03085743 1.652695e-05 -8.517502e-05 0.0001231019 19 255 240 255 
0.3844549 -0.00176675 0.02109914 2.014011e-05 -2.068007e-05 0.0001478131 240 0 0 255 
0.2451812 -0.1386719 0.002324166 -4.719529e-07 -8.573138e-06 0.0001503605 255 121 1 255 
0.2454429 -0.3835045 5.175654e-08 4.424141e-11 -6.395132e-10 0.0001506055 255 121 1 255 
0.1380507 -0.245467 8.727395e-05 2.33993e-08 -5.047941e-07 0.0001506046 255 238 0 255 
0.3834906 -0.245453 7.812537e-05 -3.235504e-09 -5.295748e-07 0.0001506046 240 0 0 255 
-0.245691 -0.1391286 0.002924341 -1.768033e-06 -9.460946e-06 0.0001502976 0 142 254 255 
-0.2454429 -0.3835045 3.455492e-08 -1.297017e-10 -5.051689e-10 0.0001506055 0 142 254 255 
-0.352832 -0.2454698 3.526595e-05 -7.785207e-08 -2.729064e-07 0.0001506052 0 21 252 255 
-0.1073824 -0.245515 0.000210072 2.413075e-08 -1.111065e-06 0.0001506014 19 255 240 255 
-0.2614133 0.3412047 0.1501618 -5.396188e-05 -3.660873e-05 0.0001357569 0 142 254 255 
-0.2480496 0.1083297 0.05683872 -4.244654e-05 -5.000781e-05 0.0001355711 0 142 254 255 
-0.3556154 0.2436616 0.09109506 -2.323347e-05 -6.284349e-05 0.0001348811 0 21 252 255 
-0.1516185 0.2277556 0.1698209 -8.045011e-05 -6.58995e-05 0.000108936 19 255 240 255 
0.2639613 0.300247 0.1040994 3.674546e-05 1.367263e-05 0.0001454126 255 121 1 255 
0.2414588 0.1023701 0.05477946 4.790394e-05 -1.816061e-05 0.0001416242 255 121 1 255 
0.1204471 0.221861 0.1852084 6.649421e-05 4.825078e-06 0.0001350454 255 238 0 255 
0.4094554 0.2200519 0.04592232 4.472954e-05 -5.326688e-05 0.0001335811 240 0 0 255 
0.3920157 0.207274 0.04601891 3.691438e-05 -5.439627e-05 0.0001355005 251 2 0 255 
0.3728651 0.1032244 0.02785983 1.991634e-05 -4.493335e-06 0.0001492151 251 2 0 255 
0.258987 0.117608 0.05082814 4.495703e-05 -1.877933e-05 0.0001425069 254 108 0 255 
0.3889598 0.1176045 0.02645928 1.95129e-05 -1.04721e-05 0.0001489684 240 0 0 255 
0.1036237 0.2097108 0.1933942 6.159963e-05 -1.633837e-06 0.0001374221 252 251 0 255 
0.1043255 0.1000957 0.1390037 7.492663e-05 -9.627653e-05 8.831103e-05 252 251 0 255 
-0.004657664 0.114021 0.1841516 -9.601245e-06 -9.105624e-05 0.0001195767 152 255 102 255 
0.1187704 0.1157875 0.1417769 8.309181e-05 -8.58604e-05 9.168289e-05 255 238 0 255 
0.1120067 0.4232955 0.1266596 3.048704e-05 -2.632522e-05 0.000145119 252 251 0 255 
0.1257632 0.3113681 0.1562433 5.049737e-05 6.435357e-05 0.0001264541 252 251 0 255 
-0.00801833 0.3349916 0.1730733 2.856347e-05 6.105004e-05 0.0001346812 152 255 102 255 
0.1456433 0.3218696 0.1430539 5.226896e-05 5.850747e-05 0.0001285568 255 238 0 255 
-0.1613718 0.2160603 0.1523093 -8.824081e-05 -8.152107e-05 9.082887e-05 7 255 252 255 
-0.1400108 0.1056183 0.1064067 -7.22558e-05 -6.965655e-05 0.0001122901 7 255 252 255 
-0.2345657 0.1231695 0.06741525 -4.884858e-05 -5.304371e-05 0.0001322202 1 154 255 255 
-0.1269446 0.1200604 0.1248953 -8.458382e-05 -6.863067e-05 0.0001040068 19 255 240 255 
-0.3701228 0.2291209 0.08214011 -2.06651e-05 -6.05404e-05 0.0001363445 0 11 253 255 
-0.3666217 0.1081018 0.0349888 -1.878267e-05 -3.064552e-05 0.0001462535 0 11 253 255 
-0.4867661 0.1218312 0.02506363 -1.435163e-05 -2.074173e-05 0.0001484783 0 1 154 255 
-0.3516157 0.1236779 0.04104044 -2.127022e-05 -4.134426e-05 0.0001432489 0 21 252 255 
-0.374602 0.4688093 0.1195176 -5.778393e-05 3.574226e-05 0.000134408 0 11 253 255 
-0.3746465 0.3470794 0.1281128 -4.8694e-05 -2.910797e-05 0.0001395121 0 11 253 255 
-0.4771062 0.3643198 0.0845121 -5.200869e-05 6.478731e-06 0.0001411918 0 1 154 255 
-0.3606849 0.3614124 0.1353233 -4.311256e-05 -2.267028e-05 0.000142511 0 21 252 255 
-0.1227225 -0.2608319 0.0001208392 -1.816822e-08 -7.050891e-07 0.0001506038 7 255 252 255 
-0.1227214 -0.3835045 2.243262e-07 -3.016209e-10 -2.605517e-09 0.0001506055 7 255 252 255 
-0.2301027 -0.3681643 1.552242e-07 -4.728905e-10 -1.97098e-09 0.0001506055 1 154 255 255 
-0.1073812 -0.3681643 6.732252e-07 -5.494769e-10 -6.957685e-09 0.0001506055 19 255 240 255 
-0.3681665 -0.2607922 1.248996e-05 -3.021867e-08 -1.10976e-07 0.0001506054 0 11 253 255 
-0.3681643 -0.3835045 0 -7.726573e-12 -1.876198e-11 0.0001506055 0 11 253 255 
-0.4755455 -0.3681643 0 0 0 0.0001506055 0 1 154 255 
-0.3528241 -0.3681643 6.817912e-09 -4.213171e-11 -1.209674e-10 0.0001506055 0 21 252 255 
-0.3686117 -0.01675079 0.01242529 -3.24262e-06 -2.202707e-05 0.0001489507 0 11 253 255 
-0.3684408 -0.1386412 0.001438082 -1.617242e-06 -5.560346e-06 0.0001504941 0 11 253 255 
-0.4756756 -0.1228893 0.0005880392 -2.347908e-06 -2.421953e-06 0.0001505677 0 1 154 255 
-0.3532123 -0.1235889 0.002298451 -2.285473e-06 -7.827147e-06 0.0001503846 0 21 252 255 
0.3681573 -0.2607892 3.964969e-05 2.244835e-09 -2.887715e-07 0.0001506052 251 2 0 255 
0.3681643 -0.3835045 2.380918e-08 2.471294e-11 -3.426781e-10 0.0001506055 251 2 0 255 
0.260783 -0.3681643 1.373915e-07 1.036067e-10 -1.537296e-09 0.0001506055 254 108 0 255 
0.3835045 -0.3681643 7.176835e-08 3.263455e-11 -9.475308e-10 0.0001506055 240 0 0 255 
0.1227163 -0.2607965 5.03607e-05 2.068013e-08 -3.082382e-07 0.0001506051 252 251 0 255 
0.1227214 -0.3835045 1.013869e-07 1.228928e-10 -1.128301e-09 0.0001506055 252 251 0 255 
0.01534018 -0.3681643 5.732023e-07 7.064136e-10 -5.449387e-09 0.0001506055 152 255 102 255 
0.1380616 -0.3681643 2.407021e-07 2.40523e-10 -2.440938e-09 0.0001506055 255 238 0 255 
0.1191393 -0.01909332 0.0169546 2.935237e-06 -4.309559e-05 0.0001442781 252 251 0 255 
0.1224123 -0.1386138 0.002075385 1.178205e-07 -7.115161e-06 0.0001504373 252 251 0 255 
0.01524901 -0.1233692 0.003410589 1.107038e-06 -9.982221e-06 0.0001502702 152 255 102 255 
0.1375781 -0.123496 0.002886971 -1.313387e-07 -9.179916e-06 0.0001503254 255 238 0 255 
0.3687275 -0.01764764 0.02030524 1.379733e-05 -2.775195e-05 0.0001473821 251 2 0 255 
0.3677992 -0.1384563 0.002755478 -3.309301e-08 -1.019138e-05 0.0001502603 251 2 0 255 
0.2604558 -0.1235829 0.003385764 -7.519092e-07 -1.157823e-05 0.0001501579 254 108 0 255 
0.3830143 -0.123189 0.003909277 6.257763e-07 -1.28208e-05 0.0001500575 240 0 0 255 
-0.1241433 -0.01669648 0.02509714 1.982641e-05 -5.73857e-05 0.0001378253 7 255 252 255 
-0.1227883 -0.1386949 0.003610051 7.929933e-07 -1.062024e-05 0.0001502285 7 255 252 255 
-0.2303885 -0.124006 0.004200206 -2.031461e-06 -1.207518e-05 0.0001501069 1 154 255 255 
-0.1074481 -0.1234074 0.004669036 1.556836e-06 -1.250366e-05 0.0001500775 19 255 240 255 
-0.1464176 0.4545814 0.2252725 -8.273218e-06 -4.445631e-05 0.0001436565 7 255 252 255 
-0.1692425 0.3274993 0.1860091 -3.34109e-05 -1.6626e-05 0.0001459085 7 255 252 255 
-0.2479116 0.3548677 0.160366 -6.344009e-05 -4.051894e-05 0.0001304438 1 154 255 255 
-0.1537158 0.3414722 0.1903337 -1.790472e-05 -1.861828e-05 0.0001483738 19 255 240 255 
0.3671866 0.4395919 0.04443965 3.578228e-05 4.139209e-05 0.0001403151 251 2 0 255 
0.4178587 0.3007543 0.06943362 5.937178e-05 6.623821e-06 0.0001382502 251 2 0 255 
0.2835594 0.3130507 0.09808536 3.245256e-05 1.835708e-05 0.0001459173 254 108 0 255 
0.426953 0.3179661 0.06303328 6.436509e-05 2.657577e-05 0.0001335398 240 0 0 255 
-0.4908857 -0.4141848 0 0 0 0.0001506055 0 0 146 255 
0.4141848 -0.4908857 0 0 0 0.0001506055 215 0 0 255 
0.4940966 0.4088381 0.01035898 6.079522e-05 1.341538e-05 0.0001371349 0 0 146 255 
-0.4177239 0.4849815 0.09406543 -6.53111e-05 2.820544e-05 0.0001327438 1 0 228 255 
-0.5008576 0.07563979 0.01720754 -2.848567e-05 -2.675395e-05 0.0001454469 0 0 146 255 
-0.0767009 -0.4908857 0 0 0 0.0001506055 49 255 209 255 
0.4914812 -0.07640818 0.004324073 7.568726e-06 -6.218421e-06 0.0001502866 0 0 146 255 
0.0480101 0.4468941 0.1515319 3.623708e-05 -7.531424e-05 0.0001252863 223 255 34 255 
-0.02970913 0.3813798 0.1663911 5.541448e-05 1.171848e-05 0.000139549 137 255 117 255 
-0.000145071 -0.07799767 0.00765002 1.36466e-06 -1.770658e-05 0.0001495547 137 255 117 255 
-0.4145326 -0.0005208405 0.01504014 -9.278449e-06 -2.870753e-05 0.0001475527 1 0 228 255 
0.07380222 -0.00492459 0.02614185 1.014863e-05 -8.624218e-05 0.00012305 223 255 34 255 
-0.4909112 -0.1687782 8.229404e-05 -4.627472e-07 -5.293298e-07 0.0001506038 0 0 146 255 
0.168742 -0.4908857 0 0 0 0.0001506055 255 209 1 255 
0.4908911 0.1634517 0.01448007 2.710978e-05 -8.638912e-06 0.0001478933 0 0 146 255 
-0.1908334 0.4746351 0.218716 -5.731308e-05 -2.271695e-05 0.0001374087 4 225 254 255 
-0.4931369 0.3193025 0.07969064 -3.869997e-05 -5.029859e-06 0.0001454614 0 0 146 255 
-0.3221438 -0.4908857 0 0 0 0.0001506055 1 54 255 255 
0.4908862 -0.3221438 1.487457e-05 -7.765743e-08 -8.889319e-08 0.0001506054 0 0 146 255 
0.311603 0.4444019 0.05717969 3.730073e-05 4.189801e-05 0.0001397685 254 36 0 255 
-0.02363907 0.1574026 0.2048406 -1.810793e-05 -4.187407e-05 0.0001435294 137 255 117 255 
2.382268e-07 -0.322145 6.834062e-06 6.053344e-09 -5.184736e-08 0.0001506055 137 255 117 255 
-0.171428 -0.001444139 0.03075646 -1.768428e-05 -5.542822e-05 0.0001389136 4 225 254 255 
0.3232736 -0.00445203 0.02672498 7.767401e-06 -3.903466e-05 0.0001452514 254 36 0 255 
0.2446886 -0.07881111 0.008274442 -1.71871e-06 -2.335713e-05 0.0001487733 255 121 1 255 
0.2454429 -0.3221438 2.27825e-06 9.777943e-10 -2.027116e-08 0.0001506055 255 121 1 255 
0.07669579 -0.245469 0.0001041484 6.041329e-08 -5.741308e-07 0.0001506044 223 255 34 255 
0.3221322 -0.24546 7.894389e-05 -4.799542e-10 -5.154016e-07 0.0001506046 254 36 0 255 
-0.2460319 -0.07892239 0.008591077 -3.280134e-06 -1.935401e-05 0.0001493207 0 142 254 255 
-0.2454429 -0.3221451 2.576156e-06 -6.100265e-09 -2.641849e-08 0.0001506055 0 142 254 255 
-0.4141876 -0.2454511 1.310001e-05 -3.9942e-08 -1.147333e-07 0.0001506054 1 0 228 255 
-0.1687491 -0.2455317 0.0001903872 -1.144644e-07 -1.073544e-06 0.0001506016 4 225 254 255 
-0.2591219 0.4027324 0.1707615 -6.528732e-05 -2.997196e-05 0.0001323679 0 142 254 255 
-0.2505549 0.1674811 0.08092172 -4.799298e-05 -6.069674e-05 0.0001292075 0 142 254 255 
-0.4164586 0.2447578 0.08053616 -2.609668e-05 -5.074346e-05 0.0001393775 1 0 228 255 
-0.1981481 0.2331389 0.1388664 -6.26229e-05 -8.59314e-05 0.0001066592 4 225 254 255 
0.2562249 0.3549343 0.09694988 3.647033e-05 3.047798e-05 0.0001429091 255 121 1 255 
0.243213 0.1599747 0.07046693 7.075437e-05 -6.171259e-05 0.0001177599 255 121 1 255 
0.05797306 0.2238025 0.2064577 2.644564e-05 1.632589e-05 0.0001473638 223 255 34 255 
0.3510672 0.2175008 0.06189216 3.592409e-05 -6.833934e-05 0.0001293105 254 36 0 255 
-0.4908857 -0.2914634 1.264374e-07 2.464767e-10 -1.568573e-09 0.0001506055 0 0 146 255 
0.2914634 -0.4908857 0 0 0 0.0001506055 255 74 0 255 
0.4911989 0.2813591 0.01778447 8.041359e-05 -2.814622e-06 0.0001273096 0 0 146 255 
-0.3026242 0.4886357 0.1354676 -4.477846e-05 3.651413e-05 0.0001390813 0 91 254 255 
-0.4971318 0.2003362 0.04982504 -1.586995e-05 -6.034411e-05 0.000137072 0 0 146 255 
-0.1994223 -0.4908857 0 0 0 0.0001506055 0 194 252 255 
0.4909711 -0.199397 0.0007310655 -1.167644e-06 -2.412769e-06 0.0001505816 0 0 146 255 
0.1859918 0.4273857 0.1038588 5.055191e-05 2.508191e-05 0.0001396331 255 174 2 255 
-0.03161604 0.264775 0.2031697 -3.157998e-06 3.479232e-05 0.0001464975 137 255 117 255 
-8.027012e-07 -0.1995463 0.0006017558 3.600626e-07 -2.544699e-06 0.0001505835 137 255 117 255 
-0.2926318 -0.003671193 0.02173022 -1.332441e-05 -2.919713e-05 0.0001471462 0 91 254 255 
0.1952316 -0.005290796 0.02654959 -1.392164e-05 -5.80692e-05 0.0001382612 255 174 2 255 
-0.4915244 -0.04610141 0.002322155 -9.742223e-06 -8.127778e-06 0.0001500701 0 0 146 255 
0.04602053 -0.4908857 0 0 0 0.0001506055 187 255 70 255 
0.4917914 0.04606055 0.008871548 1.933877e-05 -5.643401e-06 0.000149252 0 0 146 255 
-0.07797739 0.4638396 0.2140415 5.501999e-05 -5.469105e-05 0.0001290879 83 255 169 255 
-0.4897946 0.441618 0.07001158 -5.170599e-05 2.32873e-05 0.0001395213 0 0 146 255 
-0.4448652 -0.4908857 0 0 0 0.0001506055 1 0 194 255 
0.4908857 -0.4448652 9.366234e-09 -9.660678e-11 -1.066734e-10 0.0001506055 0 0 146 255 
0.442421 0.4812714 0.01525596 3.59283e-05 2.824679e-05 0.0001435036 178 0 0 255 
-0.008470061 0.0401605 0.09085456 -1.799842e-05 -0.000126266 8.009349e-05 137 255 117 255 
0 -0.4448652 3.153683e-09 1.949437e-12 -5.264517e-11 0.0001506055 137 255 117 255 
-0.04611923 -0.002610172 0.02638473 1.524746e-07 -9.301975e-05 0.0001184454 83 255 169 255 
0.4454383 0.0001341394 0.01287695 1.91489e-05 -9.5796e-06 0.0001490757 178 0 0 255 
0.2453901 -0.1995339 0.0004146954 -3.692622e-08 -2.074745e-06 0.0001505912 255 121 1 255 
0.2454429 -0.4448652 0 2.202001e-13 -7.514987e-12 0.0001506055 255 121 1 255 
0.1994101 -0.2454661 8.203657e-05 6.083728e-09 -4.918475e-07 0.0001506047 255 174 2 255 
0.4448615 -0.2454447 0.0001002043 -1.741781e-07 -6.058083e-07 0.0001506041 178 0 0 255 
-0.2455007 -0.1997367 0.0005984978 -5.603947e-07 -2.86428e-06 0.0001505772 0 142 254 255 
-0.2454429 -0.4448652 0 0 0 0.0001506055 0 142 254 255 
-0.2914748 -0.2455002 7.535307e-05 -1.243216e-07 -5.115222e-07 0.0001506046 0 91 254 255 
-0.04601769 -0.2454911 0.0001808891 1.079626e-07 -9.315004e-07 0.0001506026 83 255 169 255 
-0.2614298 0.2820117 0.1329418 -6.036321e-05 -5.7037e-05 0.0001256386 0 142 254 255 
-0.2464783 0.04636673 0.03482255 -2.247588e-05 -4.582299e-05 0.0001416937 0 142 254 255 
-0.2972034 0.2418555 0.101017 -3.047179e-05 -5.868051e-05 0.0001353147 0 91 254 255 
-0.08533606 0.2252673 0.2009252 -3.648639e-05 -7.59777e-06 0.0001459213 83 255 169 255 
0.2589119 0.2520044 0.1057559 5.228582e-05 -1.521537e-05 0.0001404162 255 121 1 255 
0.2428429 0.03926605 0.04526043 1.615571e-05 -3.893122e-05 0.0001445869 255 121 1 255 
0.1886752 0.2196246 0.142902 8.760122e-05 -1.929484e-05 0.0001209783 255 174 2 255 
0.4570644 0.2276809 0.03040266 5.588469e-05 -2.617208e-05 0.0001373824 178 0 0 255 
0.3790336 0.1579707 0.03317476 2.167603e-05 -3.105542e-05 0.000145766 251 2 0 255 
0.3708442 0.04344205 0.02778483 2.684e-05 -6.332885e-06 0.0001480592 251 2 0 255 
0.326663 0.1173954 0.03477498 2.462551e-05 -9.448378e-06 0.0001482778 254 36 0 255 
0.4477398 0.1189156 0.01835957 2.180611e-05 -1.058553e-05 0.000148642 178 0 0 255 
0.1005221 0.1574437 0.1852281 7.59118e-05 -4.902669e-05 0.0001204815 252 251 0 255 
0.1126111 0.04050017 0.06187917 4.361875e-05 -0.0001101902 9.293833e-05 252 251 0 255 
0.05562251 0.1133312 0.1800834 3.096152e-05 -9.177888e-05 0.0001153258 223 255 34 255 
0.1882066 0.1171832 0.08740629 7.745201e-05 -6.141351e-05 0.0001136291 255 174 2 255 
0.1318163 0.3664462 0.1261905 2.591875e-05 4.774823e-05 0.0001404647 252 251 0 255 
0.1109386 0.2605894 0.1829336 5.948333e-05 3.796912e-05 0.0001330492 252 251 0 255 
0.0757366 0.3313096 0.1579754 2.775922e-05 8.249844e-05 0.0001229042 223 255 34 255 
0.2079404 0.3143671 0.1188247 5.055637e-05 2.627142e-05 0.0001394126 255 174 2 255 
-0.1468329 0.1635188 0.1296403 -9.727356e-05 -4.988333e-05 0.000103593 7 255 252 255 
-0.1337476 0.04408291 0.06547315 -2.726158e-05 -9.084718e-05 0.0001169855 7 255 252 255 
-0.1816014 0.1215821 0.09025967 -6.288107e-05 -5.352213e-05 0.0001259498 4 225 254 255 
-0.06492189 0.1166138 0.1693304 -5.511115e-05 -9.416046e-05 0.0001038199 83 255 169 255 
-0.3685254 0.1692429 0.05475956 -1.527307e-05 -5.774309e-05 0.0001382551 0 11 253 255 
-0.366353 0.04540296 0.02426453 -9.293659e-06 -2.718982e-05 0.0001478389 0 11 253 255 
-0.4164585 0.1227767 0.03196685 -1.654392e-05 -2.881426e-05 0.0001468947 1 0 228 255 
-0.2914069 0.12374 0.05114624 -2.868212e-05 -4.251477e-05 0.0001416045 0 91 254 255 
-0.3750977 0.407066 0.131003 -6.172627e-05 1.274382e-05 0.0001367826 0 11 253 255 
-0.3717225 0.2885851 0.109215 -3.463352e-05 -6.007178e-05 0.0001336933 0 11 253 255 
-0.4180045 0.363011 0.1104081 -6.778876e-05 -4.523502e-06 0.0001344107 1 0 228 255 
-0.3022413 0.3594436 0.1453186 -2.163862e-05 -3.629471e-05 0.0001445561 0 91 254 255 
-0.1227214 -0.3221474 8.264772e-06 -4.915336e-09 -6.734793e-08 0.0001506055 7 255 252 255 
-0.1227214 -0.4448652 1.751345e-09 -9.442344e-12 -3.446288e-11 0.0001506055 7 255 252 255 
-0.168742 -0.3681643 3.968971e-07 -7.932843e-10 -4.490739e-09 0.0001506055 4 225 254 255 
