ply
format ascii 1.0
comment VCGLIB generated
element vertex 609
property float x
property float y
property float z
property float nx
property float ny
property float nz
property uchar red
property uchar green
property uchar blue
property uchar alpha
element face 0
property list uchar int vertex_indices
end_header
-0.1673666 0.6136373 -9.48823 0.6758261 0.1243884 -0.7264893 186 184 34 255 
0.03446927 -0.2236547 -9.518562 0.9788749 -0.1077119 0.1737874 175 166 50 255 
-1.386888 -1.210574 -9.507549 0.9743397 -0.07823011 -0.2110504 115 131 86 255 
-0.01043791 -0.0616798 -9.5277 0.5415782 0.1674323 -0.8238079 203 162 36 255 
0.005327516 -0.5212923 -9.515011 0.214726 -0.202818 0.9553835 205 138 45 255 
-0.01506216 -0.4862907 -9.505422 -0.0725538 -0.19852 0.9774077 202 135 47 255 
-0.04599262 0.0188781 -9.511546 0.3525221 0.1333156 -0.9262587 224 163 31 255 
-0.02780557 0.04000781 -9.508869 0.5523002 -0.05603637 -0.8317599 221 164 31 255 
-0.4978249 0.8274996 -9.500642 0.2531458 0.3179825 -0.9136763 178 176 42 255 
-0.5369586 0.7888668 -9.533542 0.08781184 0.8071278 -0.5838097 185 178 38 255 
-0.5355762 0.8138077 -9.517803 0.2572271 0.4768868 -0.8404839 183 178 38 255 
-0.04489142 0.05434328 -9.512597 0.3481254 -0.2408593 -0.9059777 218 163 32 255 
0.02974857 -0.4709276 -9.518385 0.7558604 -0.01332585 0.6545972 147 149 76 255 
0.006703429 -0.4580936 -9.501941 0.5255314 -0.2277598 0.8197209 177 147 60 255 
-0.2022032 0.5736374 -9.509413 0.577426 -0.1083921 -0.809216 186 180 41 255 
-0.2115655 0.592247 -9.524472 0.607694 -0.1225592 -0.7846574 187 184 35 255 
-0.1222732 0.2082844 -9.519089 0.01378316 0.9523262 0.3047702 231 118 48 255 
-0.1981505 0.6618004 -9.499721 0.6455276 0.3447271 -0.6815111 178 176 44 255 
-0.2223532 0.6644561 -9.525346 0.4939446 0.5132269 -0.7018667 175 175 46 255 
-0.2207212 0.6817901 -9.504673 0.4270552 0.6205563 -0.657673 169 173 50 255 
0.01515521 -0.2884883 -9.507215 0.8015354 0.1740552 0.572054 193 159 46 255 
-0.1731436 -0.324032 -9.508264 0.1361453 -0.3822867 0.9139592 226 130 40 255 
-1.389188 -1.249539 -9.494363 0.9912137 0.1317686 -0.01150791 81 110 113 255 
-0.06875547 -0.3089983 -9.488522 -0.6100366 -0.3606768 0.7055265 230 105 46 255 
-0.6857877 1.025135 -9.495768 0.7012853 0.488361 -0.519329 217 182 23 255 
-0.3479393 0.8116155 -9.491777 -0.09373579 0.6060796 -0.7898615 175 177 42 255 
0.01561754 -0.2184714 -9.488932 0.8300224 -0.04968189 0.555513 188 164 46 255 
0.01760878 -0.2005088 -9.491169 0.8612297 0.0007551636 0.5082154 188 167 44 255 
-0.05299386 -0.3561344 -9.474464 -0.7144732 -0.2628244 0.6484223 225 140 38 255 
-0.3991416 0.8110536 -9.483301 0.06752865 0.4506881 -0.8901237 162 178 48 255 
-0.06681909 -0.3368264 -9.489248 -0.732017 -0.165532 0.6608708 226 146 36 255 
-0.1928429 0.3130111 -9.508047 0.9035811 -0.3867961 -0.1842008 217 159 31 255 
-0.179736 0.3608766 -9.485285 0.8610122 -0.2136157 0.4615479 219 153 33 255 
-0.5195159 0.9307032 -9.485058 -0.1672992 0.4617789 -0.8710748 186 187 26 255 
0.003008863 -0.3643573 -9.491926 0.8241068 -0.02346932 0.565948 166 177 45 255 
-0.5476694 0.9178045 -9.490418 0.03932343 0.3783241 -0.9248376 190 179 41 255 
-0.0006125881 -0.03330247 -9.493345 0.9135874 0.2710128 -0.303167 209 160 36 255 
-0.5842627 0.9242983 -9.486181 0.3587863 0.5436604 -0.7587528 205 179 32 255 
0.01886512 -0.3147921 -9.496761 0.8604863 0.04218141 0.5077244 178 166 48 255 
-0.02282654 0.06396658 -9.503288 0.8404773 -0.166872 -0.515511 215 150 36 255 
-0.1341206 0.4901427 -9.490588 0.9951862 0.01102898 0.09737939 200 162 42 255 
-0.01610861 0.08299247 -9.502609 0.8733703 -0.471472 -0.1222231 215 162 33 255 
-0.1642244 0.5459285 -9.488888 0.6388191 0.1898632 -0.7455616 179 178 45 255 
0.003022653 0.14336 -9.494125 0.9309058 -0.3199152 -0.1762631 216 149 35 255 
-0.004349262 0.184329 -9.485236 0.5299981 0.8284966 -0.1808193 219 149 34 255 
-0.231317 0.7028417 -9.490128 0.4014321 0.455849 -0.7943891 188 187 33 255 
-0.1255303 -0.2785735 -9.500579 -0.1296312 -0.3292764 0.9352929 230 133 38 255 
-0.04505056 -0.4641362 -9.501373 -0.4949698 -0.5160413 0.6990753 219 122 43 255 
-0.09694306 -0.2723357 -9.491963 -0.4742879 -0.4957651 0.7275081 232 113 43 255 
-0.002678038 -0.4723769 -9.503556 0.215166 -0.3142827 0.9246243 202 138 49 255 
-0.3995837 0.7916811 -9.505753 -0.05646021 0.8168446 -0.574088 145 173 60 255 
0.01234912 -0.4364868 -9.499097 0.6740122 -0.181376 0.7161078 202 141 47 255 
-0.3398626 0.7996213 -9.503663 0.2194733 0.6302454 -0.7447296 187 183 35 255 
-0.06622553 -0.4449539 -9.515722 -0.8099203 -0.2824037 0.514079 220 130 38 255 
-0.4448156 0.7930375 -9.499564 0.2019409 0.6753041 -0.7093549 165 175 49 255 
0.00894342 -0.0822616 -9.504717 0.9432984 0.1594588 -0.2911376 209 162 35 255 
-0.1354699 0.4778977 -9.502702 0.9892333 -0.1139571 0.0918225 208 158 40 255 
-0.05335844 -0.3834791 -9.491838 -0.6755027 -0.2705995 0.6859097 222 126 41 255 
-0.4695891 0.8203803 -9.494707 0.2888618 0.2903239 -0.9122888 148 166 66 255 
-0.02931162 0.01633803 -9.503161 0.6284842 0.1072468 -0.7703933 215 157 34 255 
-0.01688624 0.02921854 -9.491259 0.8613051 0.08775726 -0.5004521 215 146 37 255 
-0.08095191 -0.337396 -9.504805 -0.5711352 -0.387549 0.7236093 228 133 38 255 
0.008635846 -0.3958022 -9.491469 0.7433479 -0.006146207 0.6688768 142 154 68 255 
-0.4727345 0.8722448 -9.491547 0.2179117 -0.01751052 -0.9758114 170 175 42 255 
-0.07554265 0.2032278 -9.497058 0.06198527 0.9441658 0.3235874 225 172 25 255 
0.01097122 -0.3447143 -9.497671 0.8679128 -0.206604 0.4517104 158 175 49 255 
-0.09895606 0.1930111 -9.489264 -0.1375131 0.8793837 0.4558229 234 91 63 255 
-0.1688064 0.6447661 -9.478954 0.5807125 0.2887397 -0.7611849 179 178 41 255 
-0.08440904 -0.3210279 -9.497452 -0.4296582 -0.308054 0.8488207 230 132 38 255 
-0.08658902 -0.2924125 -9.487819 -0.5431394 -0.3169464 0.7775247 228 144 35 255 
-0.1084793 -0.3006562 -9.498581 -0.3555617 -0.02824126 0.934226 227 130 40 255 
-0.1362167 -0.3089057 -9.505183 -0.079225 -0.1569043 0.984431 226 127 41 255 
-0.1823917 -0.2875853 -9.492031 0.4067855 -0.5049161 0.761305 225 133 40 255 
-0.5603622 0.8668231 -9.500289 0.3466045 0.3236804 -0.8803956 166 173 51 255 
-0.5407358 0.8799623 -9.496742 0.02762043 0.1761532 -0.9839752 188 184 31 255 
-0.5042499 0.8697056 -9.500093 0.1414442 0.09965467 -0.9849176 194 181 31 255 
-0.502754 0.9022418 -9.497274 -0.02843129 0.1233204 -0.9919596 186 187 25 255 
-0.577145 0.9074636 -9.500507 0.4071314 0.4468271 -0.7966114 200 178 36 255 
-0.5912942 0.9234235 -9.499413 0.534106 0.5932245 -0.6023418 207 178 30 255 
-0.475006 0.9146166 -9.49774 0.1023087 0.09162208 -0.9905243 195 176 41 255 
-0.4633785 0.9363311 -9.489648 0.01475634 0.3517359 -0.935983 193 182 30 255 
-0.3039749 0.1634685 -9.489578 -0.1281531 0.9917299 0.006979228 220 167 28 255 
-0.1238653 0.1977348 -9.499003 0.04685936 0.8873022 0.4588019 229 137 42 255 
-0.7648712 1.094708 -9.486073 0.1094837 0.9357322 -0.3352888 206 179 33 255 
-1.395749 -0.9897927 -9.489578 0.2051044 0.368384 -0.9067665 137 161 51 255 
-0.3282133 0.1640425 -9.489578 0.371967 0.8494492 -0.374268 217 164 28 255 
-0.2730312 0.1729599 -9.489578 -0.3036698 0.8954547 0.3254928 219 167 28 255 
-0.3333458 0.2035692 -9.479451 0.7069923 -0.3400997 -0.6200759 224 167 27 255 
-0.2306687 -0.3326913 -9.489578 0.5220793 -0.4775757 0.7066503 216 155 34 255 
-0.2429519 0.1852034 -9.486478 -0.3674933 0.8733062 0.3198202 219 165 29 255 
-0.2151874 0.1975101 -9.489578 -0.237017 0.9353027 0.262739 220 164 30 255 
-0.16976 0.204928 -9.487823 0.0544276 0.9315313 0.3595651 223 173 26 255 
-0.1460864 -0.2611183 -9.491838 0.1544948 -0.6987174 0.6985165 220 137 39 255 
-1.383807 -1.739092 -9.492558 0.1239851 -0.9197025 -0.3725252 56 90 85 255 
-1.349843 -1.730308 -9.489578 0.5040258 -0.8623295 -0.04843451 56 106 106 255 
-1.325584 -1.711615 -9.489578 0.8117815 -0.5829141 0.03495651 60 119 111 255 
-1.416575 -1.742613 -9.489579 0.1884131 -0.9069111 -0.3768457 70 94 81 255 
-1.320405 -1.692197 -9.489572 0.9944616 -0.1041859 0.01383652 63 107 98 255 
-1.324983 -1.61968 -9.489578 0.9692354 0.0283851 -0.2444936 74 120 103 255 
-1.31776 -1.566134 -9.489578 0.8691962 -0.3484259 -0.3508524 64 98 88 255 
-1.295079 -1.522311 -9.489636 0.9108022 -0.4082336 -0.06151984 110 141 64 255 
-1.289107 -1.501406 -9.489578 0.9525837 -0.2715399 0.1372972 104 142 59 255 
-1.279111 -1.472831 -9.489578 0.8031011 -0.5012158 0.3221979 109 149 54 255 
-1.234427 -1.420419 -9.489578 0.8977179 -0.2298517 0.3758601 100 158 85 255 
-1.269204 -1.372553 -9.489578 0.3202271 0.9469036 0.02877537 119 172 60 255 
-1.237037 -1.404423 -9.489578 0.8625363 0.3757637 0.33887 99 158 85 255 
-1.256263 -1.380551 -9.489578 0.6414445 0.7463056 0.1776987 119 172 60 255 
-1.336061 -1.384698 -9.489578 -0.2348468 0.7840077 -0.574612 143 131 63 255 
-1.371759 -1.179314 -9.489578 0.8864826 -0.2832097 -0.3659795 129 145 78 255 
-1.355099 -1.10466 -9.489578 0.8535595 -0.01741591 -0.5207043 138 148 70 255 
-1.355388 -1.074167 -9.489578 0.6982605 -0.04410591 -0.7144838 119 140 78 255 
-1.369525 -1.008963 -9.48955 0.4287005 0.3363165 -0.8385149 120 159 64 255 
-0.3549632 0.1817812 -9.501263 0.8938714 0.208885 -0.3966875 221 167 27 255 
-0.7837438 1.081547 -9.519101 0.1107502 0.8560162 -0.5049463 206 180 32 255 
-0.2194167 0.2082567 -9.517384 -0.1495361 0.9369756 0.315778 228 160 30 255 
-0.2476175 -0.3828456 -9.512051 0.317854 -0.5586258 0.766098 209 141 43 255 
-0.2228503 -0.3648512 -9.511208 0.314385 -0.4154671 0.8535509 220 135 41 255 
-0.2173118 -0.3209108 -9.491522 0.4636603 -0.4556237 0.7598857 216 154 34 255 
-1.357872 -1.719256 -9.513599 0.2017857 -0.6314731 -0.7486817 58 110 106 255 
-1.333106 -1.701262 -9.513634 0.6650513 -0.2480445 -0.7044009 64 122 111 255 
-1.449853 -1.749144 -9.491086 0.1706768 -0.9366345 -0.3059171 165 117 60 255 
-1.403057 -1.711836 -9.517999 0.1669104 -0.4612379 -0.8714359 129 113 71 255 
-1.326333 -1.658501 -9.507467 0.8332328 0.03618027 -0.5517373 64 107 98 255 
-1.345771 -1.631683 -9.520497 0.4784059 0.08211912 -0.8742908 80 125 104 255 
-1.323951 -1.58294 -9.491195 0.8897098 -0.190052 -0.4150864 85 132 108 255 
-1.306015 -1.530218 -9.501184 0.7441436 -0.5049924 -0.437302 127 162 45 255 
-1.383432 -1.39719 -9.490341 0.1216947 0.4232126 -0.8978204 160 122 66 255 
-1.442051 -1.399811 -9.513999 0.6834354 0.008993106 -0.7299556 173 123 62 255 
-1.413979 -1.381618 -9.499741 0.5298603 -0.0937932 -0.8428825 182 112 74 255 
-1.255063 -1.448465 -9.490608 0.6881572 -0.5868933 0.4266099 118 155 53 255 
-1.243784 -1.447667 -9.520439 0.7208977 -0.6924905 0.02763305 110 157 69 255 
-1.353224 -1.413157 -9.514055 -0.3561996 0.6387265 -0.6820194 128 129 61 255 
-1.328458 -1.395163 -9.510393 -0.4272106 0.7485865 -0.5070596 124 132 62 255 
-1.297813 -1.373028 -9.49348 -0.1832887 0.945834 -0.2679615 127 165 52 255 
-1.369748 -1.158783 -9.498272 0.8673249 -0.1927845 -0.4588917 121 158 71 255 
-1.377019 -1.12772 -9.516647 0.6979446 0.0599991 -0.713634 127 160 67 255 
-1.393517 -1.10187 -9.518738 0.4391628 0.2276552 -0.8690853 116 157 66 255 
-1.410634 -1.076473 -9.520239 0.3746861 0.1460802 -0.9155714 116 155 68 255 
-1.366571 -1.082292 -9.498674 0.6034505 0.08573116 -0.7927786 117 140 78 255 
-1.384565 -1.057525 -9.508654 0.4405249 0.1162254 -0.8901851 111 145 81 255 
-1.357576 -1.04071 -9.491479 0.5426965 0.09045817 -0.8350437 116 152 72 255 
-1.377792 -1.014764 -9.496708 0.3614443 0.3394201 -0.8684193 120 158 65 255 
-1.420553 -1.007991 -9.4998 0.1700487 0.4331002 -0.8851597 142 158 54 255 
-1.4679 -1.00455 -9.511538 0.2044934 0.3851953 -0.8998928 135 153 67 255 
-1.438547 -0.9832247 -9.492649 0.2292033 0.2854727 -0.9305758 143 159 51 255 
-1.481308 -0.9764517 -9.505331 0.007322597 0.4434698 -0.8962594 136 155 62 255 
-0.1986549 -0.3474296 -9.512197 0.2534774 -0.3574683 0.8988691 221 136 40 255 
-0.1498048 -0.291259 -9.504467 0.1046392 -0.2447799 0.9639157 219 134 41 255 
-1.377465 -1.279962 -9.459321 0.9408661 0.1147804 -0.3187423 116 129 84 255 
0.009399898 -0.07681189 -9.487433 0.9789389 0.1191857 0.1657511 203 163 34 255 
-1.379286 -1.26284 -9.477109 0.9707791 0.1988928 -0.1342743 115 129 84 255 
-1.388296 -1.236965 -9.47741 0.9803916 0.01454039 -0.1965222 75 106 118 255 
-0.1411318 0.5116199 -9.466503 0.9966953 -0.0749812 0.03124555 192 168 43 255 
0.002896159 -0.02343291 -9.473812 0.9964604 0.08360318 0.008796531 206 158 35 255 
-0.03527087 -0.382239 -9.475654 -0.3209154 -0.4134168 0.8521149 223 130 40 255 
-0.0007876856 0.009356604 -9.474721 0.9506552 0.2816468 -0.1301148 208 152 37 255 
-0.4065037 0.9393894 -9.479671 0.4052005 0.327119 -0.8537012 203 181 29 255 
-0.471417 0.9715753 -9.474733 -0.3388269 0.4029803 -0.8501784 193 186 24 255 
-0.007846569 -0.3484276 -9.468379 0.6132145 -0.1388742 0.777613 207 145 43 255 
-0.007723493 -0.3216523 -9.468704 0.6227871 -0.03356474 0.7816712 171 153 59 255 
-0.01902749 0.07491925 -9.478872 0.9783615 -0.1959335 -0.06647485 210 163 35 255 
-0.002359733 0.1177507 -9.480104 0.9410338 -0.3240297 -0.09726285 215 166 31 255 
0.02889739 0.1525379 -9.474757 0.8602154 0.009428931 -0.5098437 219 169 27 255 
-0.1175029 -0.2487734 -9.454266 -0.1469336 -0.9705275 0.1910155 230 130 40 255 
-0.06736384 -0.2922876 -9.463015 -0.6310979 -0.4503124 0.6316125 229 143 35 255 
-0.09037489 -0.2658624 -9.471583 -0.5149466 -0.7237514 0.4593626 228 166 27 255 
-0.002485291 -0.2733895 -9.482438 0.8561343 -0.1028856 0.5064077 184 167 48 255 
-0.3675138 0.8183911 -9.47961 -0.1086237 0.4629417 -0.8797079 177 188 23 255 
-0.0265977 0.1946935 -9.491854 0.2754948 0.9612327 -0.01159002 223 156 30 255 
0.003474112 -0.2115134 -9.475594 0.8480065 0.08415519 0.5232618 202 164 44 255 
-0.2912692 0.229972 -9.468977 0.6695834 -0.7364352 -0.09654705 215 165 30 255 
-0.303974 0.2223653 -9.471565 0.5024168 -0.7602559 -0.4118111 224 183 23 255 
-0.1980881 0.689616 -9.481423 0.5039355 0.3882794 -0.7715492 189 187 31 255 
-0.0004507149 -0.1809311 -9.472497 0.7517246 -0.08611915 0.6538301 187 168 43 255 
-0.2631231 0.2508249 -9.484303 0.5663492 -0.8240634 0.01297195 226 159 32 255 
0.007836221 -0.1601077 -9.473654 0.8195404 -0.04855015 0.5709609 193 162 39 255 
-0.2128022 0.2743384 -9.478207 0.643461 -0.7654334 -0.00834981 216 159 34 255 
0.00808087 -0.1226725 -9.47404 0.9030382 0.03219082 0.4283524 204 164 34 255 
-0.2014402 0.2969694 -9.473961 0.9003657 -0.414634 0.1319865 217 160 32 255 
-0.1920589 0.3526884 -9.473928 0.8242512 -0.04203853 0.5646616 222 147 36 255 
-0.1907749 0.3836034 -9.473484 0.815132 -0.1739042 0.5525551 219 145 38 255 
-0.007030618 -0.003749992 -9.48618 0.8026501 0.2000404 -0.5619045 208 158 35 255 
-0.1497272 0.5230283 -9.485948 0.7650889 0.4054983 -0.5002102 182 178 44 255 
-0.562161 0.9364576 -9.481247 0.06407949 0.427859 -0.9015711 195 178 30 255 
-0.03969009 -0.4401374 -9.482205 -0.2938218 -0.1031516 0.9502781 218 132 39 255 
-0.02863341 -0.4479951 -9.48387 0.04048772 -0.3748468 0.9262022 209 138 41 255 
-0.1719753 0.5740169 -9.492876 0.5974176 -0.02642245 -0.8014949 184 181 43 255 
-0.04416427 -0.414058 -9.48673 -0.5454894 -0.026868 0.837687 208 139 41 255 
-0.5828058 0.9585276 -9.47578 0.2257201 0.4321991 -0.8730718 203 180 28 255 
0.003035392 -0.4091603 -9.4879 0.5232528 -0.1371716 0.8410651 204 141 46 255 
0.01035692 0.1649011 -9.489826 0.8654451 0.315152 -0.3894663 219 153 33 255 
-0.1593412 0.5900683 -9.480861 0.5427322 0.004770157 -0.8398922 189 182 37 255 
-0.02574406 -0.3970356 -9.480781 -0.1532932 -0.2616368 0.9529153 207 142 42 255 
-0.1303737 0.6109087 -9.472739 0.3264743 0.2015665 -0.9234639 184 182 37 255 
-0.01064118 -0.3926647 -9.477747 0.2203642 -0.3131809 0.9237734 206 140 44 255 
-0.1536942 0.6310328 -9.473976 0.4771404 0.2629635 -0.8385627 190 183 33 255 
-0.4466054 0.925458 -9.489445 0.1254563 0.1058426 -0.9864371 192 180 32 255 
-0.5036648 0.930795 -9.490418 -0.1842276 0.4132889 -0.8917693 181 177 38 255 
-0.5228372 0.9437922 -9.475503 -0.08435199 0.5821286 -0.8087096 190 181 31 255 
-0.2778256 0.2366105 -9.488179 0.5945873 -0.8040025 0.006782511 210 162 32 255 
-0.4876201 0.9557127 -9.473793 -0.2370941 0.5324066 -0.8126068 185 176 34 255 
-0.06030666 -0.3155049 -9.478992 -0.7566486 -0.2919682 0.5850106 230 120 42 255 
-0.4172132 0.9239374 -9.488055 0.2785564 0.05760625 -0.9586907 190 178 41 255 
-0.1944677 0.3385005 -9.472198 0.9501728 -0.1016808 0.2946739 218 158 31 255 
0.01293535 -0.3247341 -9.486812 0.8060024 -0.1122649 0.5811684 167 168 54 255 
-0.2401947 0.7258492 -9.484911 0.3755703 0.4037786 -0.8342121 188 186 31 255 
-0.4247834 0.9607339 -9.475869 0.3631217 0.3619178 -0.8585792 197 179 29 255 
-0.1736926 0.3888946 -9.489269 0.7926664 -0.2503892 0.5558643 219 141 39 255 
-0.4489297 0.9597845 -9.482343 0.00386624 0.2972218 -0.9548007 185 189 24 255 
-0.1235136 -0.2586748 -9.485929 -0.1692565 -0.8146873 0.5546502 225 133 40 255 
-0.2664034 0.745459 -9.488381 0.4847344 0.4845563 -0.7281743 190 186 34 255 
-0.6106058 0.9526507 -9.48804 0.3920921 0.4723021 -0.7894267 207 179 32 255 
-0.300156 0.7883524 -9.479424 0.4561123 0.3674747 -0.8105085 187 183 37 255 
-0.6288177 0.9637614 -9.493454 0.5479 0.5195669 -0.6556339 209 179 33 255 
0.008184901 -0.2480786 -9.480008 0.8696792 -0.2299317 0.4367946 187 164 39 255 
-0.633705 0.9870545 -9.474852 0.5480872 0.4488122 -0.7058102 206 181 34 255 
-0.6482549 1.007758 -9.47669 0.5821261 0.4905392 -0.6484601 217 183 24 255 
-0.6683302 1.031104 -9.473835 0.5590017 0.4628453 -0.6879618 214 186 24 255 
0.01756913 -0.1740357 -9.48419 0.8789577 0.008652992 0.4768213 188 163 44 255 
-0.3174741 0.812694 -9.482486 0.3988884 0.3658012 -0.840879 188 182 38 255 
-0.3303958 0.8452091 -9.473819 0.09903244 0.2373023 -0.9663748 173 179 42 255 
-0.4378772 0.8287384 -9.482939 0.1883947 0.1827741 -0.9649358 180 184 32 255 
-0.3944623 0.8388444 -9.480705 0.1364245 0.1193368 -0.9834364 172 180 41 255 
-0.3986868 0.8680967 -9.475345 0.1399037 0.08174891 -0.9867848 179 177 45 255 
-0.4393805 0.8558388 -9.481991 0.212488 -0.01548261 -0.977041 188 187 24 255 
-0.3880402 0.8969331 -9.473675 0.2738357 0.0345029 -0.9611574 186 180 36 255 
-0.4379224 0.8869256 -9.488138 0.2030632 -0.1191137 -0.9718937 181 178 39 255 
-0.4014905 0.9198296 -9.4799 0.43107 0.01501158 -0.9021936 194 181 35 255 
-1.3764 -1.253963 -9.457468 0.8212352 0.03427336 -0.5695596 101 123 98 255 
-0.003438761 -0.04185344 -9.458965 0.7732636 -0.1096257 0.6245363 214 159 35 255 
-0.1369073 0.5329037 -9.461331 0.9664983 -0.05067963 -0.2516204 187 172 45 255 
-0.1395346 0.5630254 -9.467942 0.6050773 -0.2363252 -0.7602841 186 176 45 255 
-0.01280011 0.03398304 -9.472573 0.9702044 0.2422192 0.005782512 213 153 35 255 
-0.1066206 0.5803942 -9.455436 0.4558796 -0.325278 -0.8284733 175 173 54 255 
-0.5673417 0.9939074 -9.450435 0.2160637 0.346475 -0.9128371 217 187 22 255 
-0.01372432 -0.2739022 -9.457805 0.7998921 -0.2255932 0.5561298 197 166 43 255 
0.00234513 -0.2325064 -9.459145 0.9040007 -0.08417872 0.4191618 209 163 39 255 
-0.005376361 -0.2049383 -9.458472 0.9022231 0.1652873 0.3983387 202 162 42 255 
-0.1053263 0.6097811 -9.458965 0.6165832 0.2031526 -0.7606274 178 177 45 255 
-0.008843586 -0.1904457 -9.458965 0.9207761 0.1462159 0.3616523 201 162 41 255 
0.01059634 0.179519 -9.473639 0.6421601 0.744056 -0.1844212 213 161 30 255 
-0.001800764 -0.1480994 -9.459024 0.734485 -0.02904965 0.6780028 208 169 34 255 
-0.1168177 0.6312142 -9.456407 0.4599166 0.345003 -0.8181991 177 180 44 255 
-0.2724949 0.2503462 -9.458965 0.5274391 -0.8460279 -0.07774917 216 158 33 255 
-0.2506806 0.2566762 -9.45612 0.5254642 -0.8507718 -0.008640263 215 178 24 255 
-0.2253419 0.8089148 -9.458093 0.04151745 0.5099933 -0.8591759 187 187 30 255 
-0.1927748 0.3198146 -9.472653 0.9878697 -0.09654462 0.1216249 219 159 32 255 
-0.2602911 0.7944468 -9.464059 0.2721511 0.3302008 -0.9038259 180 182 40 255 
-0.1656819 0.4337893 -9.477912 0.8010572 -0.3392074 0.4931996 213 157 37 255 
-0.2833623 0.1621287 -9.445334 0.04753082 0.9928957 0.1090825 220 168 28 255 
-0.2990296 0.1663252 -9.458965 0.4728135 0.8547383 0.2141726 221 167 27 255 
-0.3203756 0.1960291 -9.458006 0.9936872 -0.0906314 0.06611948 222 167 28 255 
-0.371272 0.9472891 -9.452534 0.5262361 0.4099223 -0.7450096 209 183 27 255 
-0.04796918 -0.3529495 -9.468446 -0.4385098 -0.2254208 0.8699969 230 120 42 255 
0.03188952 0.1409098 -9.458132 0.8289469 -0.3979791 -0.3930137 216 159 31 255 
-0.009095745 -0.3687832 -9.473614 0.4696881 -0.1652192 0.8672345 222 136 40 255 
-0.02728943 -0.3241712 -9.458377 0.09758489 -0.2750249 0.9564719 225 137 37 255 
-0.4362132 0.9815148 -9.475526 0.2201445 0.4037886 -0.8879703 203 179 29 255 
-0.04183407 -0.3237379 -9.464071 -0.5021555 -0.2481874 0.8283978 230 121 42 255 
-0.5162792 0.9806703 -9.445725 0.01535614 0.5162898 -0.8562763 192 186 25 255 
-0.2589472 0.760563 -9.47325 0.325457 0.3770085 -0.8671461 196 194 19 255 
-0.009380655 -0.289876 -9.469891 0.7699401 -0.01251279 0.6379934 170 167 52 255 
-0.4719788 1.007526 -9.446689 -0.3068305 0.76682 -0.5637748 198 185 24 255 
-0.2815875 0.8205985 -9.463894 0.392902 0.3152134 -0.8638684 189 181 39 255 
-0.4579849 1.002857 -9.45956 -0.1955461 0.6953547 -0.6915516 213 182 23 255 
-0.6162689 0.9919021 -9.46287 0.3103663 0.3542956 -0.8821266 210 186 23 255 
-0.3147219 0.8347688 -9.470163 0.3752288 0.3051083 -0.8752784 189 188 25 255 
-0.3492145 0.8470694 -9.470424 -0.0310402 0.1789926 -0.9833607 191 189 22 255 
-0.003379742 -0.09651487 -9.458804 0.7593399 0.03997094 0.6494654 206 164 33 255 
-0.322978 0.8657523 -9.470539 0.3199621 0.236636 -0.9174027 191 183 36 255 
-0.3360944 0.8949466 -9.463182 0.3121926 0.3417816 -0.8864091 197 184 32 255 
-0.114116 0.6048867 -9.4672 0.5166124 0.04853268 -0.8548428 177 176 47 255 
-0.3486917 0.8710309 -9.469594 0.06798483 0.1311936 -0.9890229 180 185 30 255 
-0.3737616 0.918371 -9.464872 0.3990931 0.2682557 -0.8767917 199 185 30 255 
-0.1366014 0.6355518 -9.461544 0.3907301 0.3588356 -0.8476834 174 178 47 255 
-0.1806726 0.6797475 -9.472757 0.5809562 0.3226179 -0.7472668 172 178 46 255 
-0.1823506 0.7248206 -9.460675 0.473452 0.1117551 -0.8737013 190 188 26 255 
-0.1983473 0.7433262 -9.463957 0.2312501 0.1459119 -0.9618904 191 190 21 255 
-0.2201641 0.7887334 -9.464993 0.0537083 0.1955177 -0.9792284 196 190 19 255 
-0.2430229 0.7814471 -9.466018 0.08247434 0.2368553 -0.968038 197 193 19 255 
-0.1280449 0.1788313 -9.457308 -0.05001179 0.9519783 0.3020533 233 88 61 255 
-1.007808 0.1622118 -9.458965 -0.7333244 -0.1744498 0.6571169 235 77 59 255 
-1.352354 -0.9206014 -9.458965 0.4685012 -0.2372912 -0.8509992 55 122 132 255 
-0.8076301 1.102294 -9.458965 -0.06302544 0.9814299 -0.1811718 202 170 40 255 
-1.023027 0.1889939 -9.458965 -0.558913 -0.6315626 0.5373499 234 80 57 255 
-0.1327253 0.1849642 -9.471149 0.09403583 0.8986315 0.4285077 220 168 28 255 
-1.342284 -0.9076728 -9.458891 0.6068283 -0.2448929 -0.756166 48 114 132 255 
-0.6816247 1.076355 -9.457495 0.4844475 0.6396334 -0.596808 216 185 24 255 
-0.212823 0.1942557 -9.458965 -0.1649945 0.9503748 0.2637511 217 168 27 255 
-0.7602946 1.102217 -9.457221 0.1079717 0.979887 -0.1678203 209 178 32 255 
-0.2515309 -0.3253758 -9.458965 0.729381 -0.5507674 0.4057815 212 174 27 255 
-0.2711015 -0.3505228 -9.458965 0.6956691 -0.6206668 0.3616867 211 149 38 255 
-1.060329 0.1107662 -9.458965 -0.1616477 0.8045945 0.5713999 230 84 55 255 
-1.08169 0.108533 -9.458965 0.2181316 0.806996 0.548795 233 70 58 255 
-0.2113273 -0.2762753 -9.459057 0.5231033 -0.737919 0.4264252 223 174 26 255 
-0.1570536 -0.247082 -9.458965 0.2070292 -0.9680368 0.1415758 220 158 32 255 
-0.1776087 -0.2563007 -9.458965 0.4416686 -0.8616018 0.2501426 219 158 32 255 
-1.413941 -1.746248 -9.458965 0.2823344 -0.9519175 0.1189132 55 88 83 255 
-1.447114 -1.752672 -9.458965 0.1167446 -0.9908803 0.06728223 96 95 76 255 
-1.113048 0.183327 -9.458965 0.6296414 -0.4179329 0.6548923 230 80 56 255 
-1.341146 -1.690196 -9.458965 0.75432 -0.2427733 0.6099692 53 86 77 255 
-1.088791 0.2020215 -9.458965 0.2800385 -0.7806013 0.5587845 231 81 57 255 
-1.329453 -1.645338 -9.461318 0.9255126 -0.1276776 0.3565457 49 78 68 255 
-1.325898 -1.607017 -9.458965 0.9556729 -0.1670581 0.2424478 50 79 70 255 
-1.315757 -1.575137 -9.458965 0.9430327 -0.3119746 0.1155903 59 93 86 255 
-1.304155 -1.531861 -9.460032 0.9433846 -0.2503664 0.2175828 89 125 75 255 
-1.287041 -1.452168 -9.458965 0.8035501 -0.3805659 0.4576864 133 153 56 255 
-1.2742 -1.427146 -9.456363 0.6888974 -0.3025412 0.6587027 139 156 51 255 
-1.289675 -1.366986 -9.458965 0.3716435 0.9096417 0.1855616 122 162 58 255 
-1.313335 -1.363893 -9.458965 0.1797123 0.9263346 -0.3310707 134 144 63 255 
-1.37094 -1.312508 -9.458965 0.7480243 0.1663216 -0.6424927 152 135 60 255 
-1.380278 -1.220858 -9.462067 0.7833493 -0.2450959 -0.5712196 135 147 76 255 
-1.361833 -1.19237 -9.459172 0.7559256 -0.2437026 -0.6076064 135 147 76 255 
-1.352022 -1.150716 -9.458965 0.9075363 -0.1060805 -0.4063554 133 148 75 255 
-1.347328 -1.106838 -9.459297 0.9631638 -0.2209313 -0.1533131 145 155 61 255 
-1.334406 -1.07448 -9.458965 0.7730336 -0.4727179 -0.423033 139 160 59 255 
-1.312413 -1.052667 -9.458965 0.3690868 -0.6177918 -0.6943402 139 156 61 255 
-1.280925 -1.043926 -9.458965 0.3777017 -0.6491764 -0.6602359 161 164 45 255 
-1.254077 -1.028795 -9.458965 0.6954408 -0.5523564 -0.4596352 147 162 50 255 
-1.280389 -0.9925794 -9.458965 -0.1703181 0.4728676 -0.864516 137 155 62 255 
-1.311214 -1.00328 -9.459946 0.1273456 0.3074824 -0.942994 136 159 62 255 
-1.333297 -0.9824367 -9.458965 0.4897289 0.407765 -0.7706448 142 163 57 255 
-1.479075 -0.8753612 -9.458965 -0.6777096 0.368529 -0.6363144 136 150 71 255 
-1.467015 -0.8481874 -9.459092 -0.755424 0.244654 -0.6078479 131 154 69 255 
-1.459448 -0.8065363 -9.462299 -0.7802732 0.08231603 -0.6199983 135 155 66 255 
-1.46093 -0.750662 -9.457778 -0.7465861 0.1394156 -0.6505172 147 157 60 255 
-1.193589 -0.4646901 -9.458965 -0.1963457 -0.7934551 -0.576088 158 151 73 255 
-1.557191 -0.9761728 -9.458965 -0.7518921 0.5346782 -0.3857169 141 155 63 255 
-1.076074 -0.4930416 -9.458965 0.003062835 -0.8126203 -0.5827854 163 149 69 255 
-1.516771 -0.9266762 -9.458549 -0.6122474 0.5296004 -0.5870916 137 151 68 255 
-1.33992 0.1838993 -9.460137 -0.9207672 -0.3356613 0.1987944 229 119 41 255 
-1.411607 -0.9671067 -9.484096 0.2057385 0.2017304 -0.957589 144 161 48 255 
-1.017114 0.1554504 -9.466499 -0.5164078 0.07869692 0.8527191 235 77 59 255 
-1.370786 -0.9717613 -9.474407 0.3753072 0.2987733 -0.8774276 104 152 96 255 
-1.035108 0.1802167 -9.474319 -0.4148905 -0.3603518 0.8354714 234 80 57 255 
-0.1776821 0.1978023 -9.471524 0.07844564 0.9135368 0.39912 221 170 27 255 
-0.6988109 1.068457 -9.483174 0.6211306 0.6008384 -0.50318 213 181 27 255 
-1.389013 -0.9472363 -9.475609 0.3441136 0.04831414 -0.9376842 86 147 118 255 
-0.2694375 0.1645621 -9.449416 -0.2599058 0.9526277 0.1579542 218 169 28 255 
-1.358983 -0.9363917 -9.458981 0.4108915 -0.03044264 -0.9111758 64 133 132 255 
-0.3105631 0.1764416 -9.460269 0.6856192 0.5925237 -0.4228973 221 167 27 255 
-1.435946 -0.9439946 -9.486135 0.1009181 0.1596091 -0.9820084 131 156 66 255 
-1.066648 0.1194622 -9.47051 -0.07225517 0.6246773 0.7775329 232 80 56 255 
-1.407007 -0.9224695 -9.481277 0.1352552 -0.009359382 -0.9907666 81 135 110 255 
-1.084641 0.1442285 -9.487082 0.2803869 0.2596298 0.924108 232 79 56 255 
-1.382241 -0.9044757 -9.479258 0.2643364 -0.1917507 -0.9451761 44 114 136 255 
-1.041881 0.137456 -9.473366 -0.36946 0.3760978 0.8497351 234 79 57 255 
-1.357474 -0.8864812 -9.47547 0.4509582 -0.2113848 -0.8671524 51 118 127 255 
-1.059875 0.1622223 -9.487471 -0.1874481 -0.059247 0.9804861 232 78 57 255 
-1.102636 0.1689957 -9.473942 0.5726093 -0.1790874 0.800029 231 79 57 255 
-1.449769 -0.9156972 -9.483654 -0.129647 0.09374235 -0.9871191 131 155 66 255 
-1.425002 -0.8977028 -9.483139 -0.02007222 -0.02828012 -0.9993985 86 137 106 255 
-1.077869 0.1869895 -9.478003 0.1634019 -0.5302441 0.8319502 231 79 57 255 
-1.382817 -1.737299 -9.465078 0.3399862 -0.9033281 0.2615485 53 83 78 255 
-1.400235 -0.8797089 -9.486261 0.02249527 -0.1137446 -0.9932553 73 131 117 255 
-1.358217 -1.718781 -9.459499 0.581306 -0.6186835 0.5285018 54 93 90 255 
-1.467763 -0.8909304 -9.474043 -0.4339103 0.231239 -0.8707758 133 149 72 255 
-1.333106 -1.701262 -9.469856 0.7387288 -0.3070555 0.5999973 56 105 97 255 
-1.442996 -0.8729359 -9.479977 -0.2896407 0.1319729 -0.9479934 125 153 72 255 
-1.326333 -1.658501 -9.476515 0.9408876 -0.04233239 0.3360635 60 98 89 255 
-1.418229 -0.8549421 -9.485865 -0.1868896 0.004113169 -0.9823723 123 154 72 255 
-1.375468 -0.8617145 -9.486158 0.2054644 -0.07597213 -0.9757113 101 148 88 255 
-1.350702 -0.8437206 -9.47732 0.4947943 -0.0516135 -0.867476 111 154 78 255 
-1.242936 -1.408708 -9.471321 0.7769927 0.03192705 0.6286995 99 156 85 255 
-1.261651 -1.384467 -9.459991 0.6625671 0.4825197 0.5728697 125 173 56 255 
-1.368696 -0.8189538 -9.484385 0.2525286 0.05046954 -0.9662723 130 165 61 255 
-1.325801 -0.8257941 -9.459095 0.6350468 -0.1093981 -0.7646879 140 175 50 255 
-1.371769 -1.389795 -9.484666 0.09177514 0.5168462 -0.8511448 153 129 64 255 
-1.343929 -0.8009598 -9.472837 0.4831315 0.1025721 -0.8695188 135 172 51 255 
-1.341466 -1.366367 -9.467143 0.1938795 0.6371298 -0.7459735 150 131 63 255 
-1.436223 -0.8301753 -9.479702 -0.420468 0.01602625 -0.9071658 127 155 70 255 
-1.390534 -1.364223 -9.485251 0.6058591 0.01432609 -0.795443 130 113 74 255 
-1.406982 -0.8249257 -9.487687 -0.08960257 0.02083818 -0.9957596 130 161 64 255 
-1.364514 -1.34542 -9.463398 0.524249 0.3241156 -0.787472 163 130 65 255 
-1.38669 -0.794187 -9.485609 0.1307681 0.1253264 -0.9834597 130 163 63 255 
-1.382678 -1.325639 -9.481643 0.8790561 -0.02245054 -0.4761895 160 134 60 255 
-1.42945 -0.7874141 -9.481133 -0.373809 0.1482378 -0.9155831 133 156 67 255 
-1.404684 -0.7694203 -9.483269 -0.04715486 0.178753 -0.9827634 132 156 67 255 
-1.361923 -0.7761931 -9.475657 0.3644096 0.2352707 -0.9010291 121 163 62 255 
-1.379918 -0.7514263 -9.476009 0.2679939 0.1966416 -0.9431391 131 161 66 255 
-1.354914 -0.7336389 -9.459021 0.5076499 0.1737571 -0.8438602 130 164 65 255 
-1.422678 -0.7446535 -9.477203 -0.2695649 0.1360327 -0.9533257 146 157 61 255 
-1.397912 -0.7266595 -9.474245 0.06581675 0.2422958 -0.9679675 142 162 62 255 
-1.373144 -0.7086651 -9.464525 0.2926279 0.2267961 -0.9289416 139 164 63 255 
-1.443263 -0.718367 -9.461271 -0.540054 0.2932845 -0.7888764 185 160 44 255 
-1.394524 -0.682001 -9.462196 0.02062275 0.2171579 -0.9759187 166 165 56 255 
-0.2626366 -0.3643371 -9.488397 0.5467424 -0.5747873 0.6088451 211 146 40 255 
-1.358858 -1.137555 -9.488284 0.8840379 -0.1690556 -0.435772 131 146 77 255 
-1.348577 -1.107059 -9.472385 0.9459053 -0.1534574 -0.2858565 144 153 64 255 
-1.341804 -1.064298 -9.47781 0.6845685 -0.2496268 -0.6848741 133 157 63 255 
-1.317037 -1.046303 -9.465025 0.3913249 -0.2536405 -0.884608 134 155 64 255 
-1.29227 -1.02831 -9.46707 0.002066008 -0.09474977 -0.995499 133 153 66 255 
-1.335031 -1.021537 -9.474014 0.4763442 0.1522262 -0.8659812 112 151 76 255 
-1.267503 -1.010315 -9.468782 0.1073227 0.08425066 -0.9906482 145 157 55 255 
-0.6429356 1.018523 -9.465806 0.3825673 0.3991657 -0.8332521 200 185 28 255 
-0.2910482 0.1691683 -9.468512 0.04431314 0.994806 0.09163755 220 168 28 255 
-0.3119172 0.2062223 -9.463005 0.6978904 -0.5009134 -0.5118934 222 167 27 255 
-1.382281 -1.285295 -9.478698 0.9673902 -0.1115748 -0.2273924 142 133 70 255 
-1.385068 -1.211895 -9.488135 0.9564829 -0.2430443 -0.1614621 109 130 95 255 
-1.301334 0.6508117 -9.458965 -0.9339501 0.3144475 -0.1698821 211 121 51 255 
-0.8530722 -0.4869953 -9.458965 -0.03351975 -0.936134 -0.3500423 187 140 53 255 
-1.257369 -0.4513556 -9.458965 -0.157848 -0.6858269 -0.7104403 165 151 65 255 
-0.9083214 -0.4844722 -9.458965 -0.03417134 -0.9499767 -0.3104457 184 145 53 255 
-1.272868 -0.4466089 -9.458965 -0.2439833 -0.5156651 -0.8213171 173 146 58 255 
-1.292996 0.6739748 -9.458965 -0.93016 0.3480899 -0.1167719 208 125 52 255 
-1.004397 -0.4870442 -9.458965 0.08349231 -0.9335651 -0.3485475 181 147 53 255 
-1.317846 -0.4036071 -9.458965 -0.5921935 -0.2550242 -0.7643752 176 143 57 255 
-1.275464 0.7193693 -9.458965 -0.9304879 0.3644337 -0.03715322 201 131 54 255 
-1.017262 -0.4879416 -9.458965 0.09314249 -0.9025744 -0.4203379 177 147 56 255 
-1.335656 -0.3436033 -9.458965 -0.7540223 -0.1956462 -0.627035 184 134 54 255 
-1.248432 0.7820333 -9.458965 -0.8982512 0.4342442 0.06765256 193 140 56 255 
-0.931083 -0.4837873 -9.458965 -0.004496031 -0.9514689 -0.307712 183 145 53 255 
-1.296476 -0.2935578 -9.52003 -0.7749647 -0.212064 -0.5953642 184 133 54 255 
-1.513723 -1.756808 -9.458965 -0.0216267 -0.9312808 0.3636597 124 99 71 255 
-1.175545 0.8943362 -9.458965 -0.7639737 0.6375597 0.09930749 191 158 50 255 
-0.776906 -0.4876636 -9.458965 0.03152803 -0.9239079 -0.3813138 185 142 54 255 
-1.342653 -0.2702692 -9.458965 -0.8700923 -0.06468362 -0.4886261 186 132 54 255 
-1.520295 -1.756113 -9.458965 -0.2288027 -0.8684031 0.4399152 128 100 71 255 
-1.213774 0.8427912 -9.458965 -0.8312998 0.5476763 0.09482238 186 147 58 255 
-0.8092129 -0.4881463 -9.458965 -0.01107666 -0.9262966 -0.3766325 186 141 53 255 
-1.345473 -0.2259252 -9.458965 -0.9096676 -0.06918892 -0.4095338 187 131 53 255 
-1.579925 -1.729226 -9.458965 -0.5334814 -0.6757607 0.50867 157 103 66 255 
-1.615109 -1.679108 -9.458965 -0.8072145 -0.3357046 0.4854969 154 103 66 255 
-0.3732938 -0.4181963 -9.458965 0.3577636 -0.931815 0.06104207 197 150 45 255 
-1.087149 0.9810005 -9.458965 -0.6281547 0.7780095 0.0110884 193 165 45 255 
-1.322691 0.04695565 -9.458965 -0.8934901 0.3891707 0.2241017 224 120 44 255 
-0.4233211 -0.4343298 -9.459565 0.2626316 -0.9636808 -0.04841556 196 151 45 255 
-1.629991 -1.610017 -9.457524 -0.920441 -0.08662847 0.3811614 145 101 67 255 
-1.038015 1.01754 -9.458965 -0.554364 0.8321002 -0.01702566 194 167 44 255 
-1.340959 -0.02380693 -9.458965 -0.9827859 0.1793685 -0.04425949 213 117 50 255 
-0.316746 -0.3918622 -9.458965 0.4863749 -0.8370991 0.250409 198 149 45 255 
-1.631044 -1.539325 -9.458965 -0.951339 -0.01245591 0.3078945 147 105 66 255 
-0.9286103 1.075287 -9.458965 -0.3494513 0.9355453 -0.05137019 199 168 42 255 
-0.5004396 -0.4515255 -9.458965 0.1630366 -0.9771674 -0.136246 192 151 47 255 
-1.320017 0.05153447 -9.458965 -0.907177 0.2878829 0.3068442 224 121 44 255 
-1.632512 -1.497494 -9.458965 -0.9682631 -0.06123635 0.242315 148 110 65 255 
-1.635288 -1.466728 -9.458965 -0.9674216 -0.1057103 0.2300452 153 135 59 255 
-0.9840986 1.050233 -9.463061 -0.461458 0.8862652 -0.03988206 197 168 43 255 
-1.353665 0.2514933 -9.458965 -0.9947134 -0.06602629 -0.07864933 223 124 44 255 
-0.5662073 -0.4615504 -9.458965 0.1185048 -0.9612822 -0.2487834 181 145 55 255 
-0.8663359 1.093739 -9.458965 -0.2082397 0.9727727 -0.1017333 200 169 41 255 
-1.351643 0.3033943 -9.458965 -0.9852467 0.05503131 -0.1620513 223 122 44 255 
-1.645649 -1.38133 -9.458847 -0.9808942 -0.06974849 0.1816088 149 137 60 255 
-1.345474 0.3841657 -9.459439 -0.9809588 0.06394297 -0.1833877 222 121 45 255 
-1.647362 -1.324139 -9.458965 -0.9838625 0.003392631 0.1788944 139 138 63 255 
-1.645746 -1.27095 -9.458965 -0.9871983 0.0447996 0.1530767 138 140 64 255 
-1.344143 0.4097734 -9.458965 -0.9799208 0.05005778 -0.1930011 222 117 46 255 
-1.644168 -1.246138 -9.458965 -0.9867361 0.07867456 0.141994 134 141 67 255 
-1.337816 0.4915504 -9.463834 -0.9641505 0.09879286 -0.2462799 221 114 48 255 
-1.637357 -1.169685 -9.458996 -0.9828642 0.1409182 0.1188278 129 149 70 255 
-1.62228 -1.094917 -9.458965 -0.9592832 0.2654869 0.09639797 130 150 70 255 
-1.614814 -1.07345 -9.458965 -0.9232186 0.3821576 0.04028757 135 153 67 255 
-1.593629 -1.030187 -9.458965 -0.8414695 0.5267817 -0.1201264 138 154 65 255 
-1.34691 -0.1975723 -9.458948 -0.9319328 -0.02051451 -0.3620503 201 124 52 255 
-1.348308 -0.1178574 -9.458965 -0.9553273 0.03107023 -0.2939125 202 123 52 255 
-1.342623 -0.04320627 -9.458965 -0.9801924 0.07900608 -0.1816063 212 117 50 255 
-1.323608 0.5763035 -9.462628 -0.9441333 0.2252926 -0.2405321 221 110 49 255 
-1.179459 -0.4544238 -9.478933 -0.238207 -0.759726 -0.6050404 161 147 71 255 
-1.008415 -0.4815142 -9.472549 0.04516261 -0.908779 -0.4148265 181 146 53 255 
-1.264981 -0.4408785 -9.466768 -0.3328391 -0.5908331 -0.7349384 174 146 57 255 
-1.133941 0.9408697 -9.473685 -0.6831228 0.7279343 0.05877933 194 165 45 255 
-1.093937 -0.4679689 -9.491167 -0.1538979 -0.7972105 -0.5837559 160 148 71 255 
-1.517694 -1.759693 -9.469543 -0.04849194 -0.9687115 0.2434064 148 103 66 255 
-1.215423 -0.4046873 -9.520174 -0.3849759 -0.6394202 -0.665534 179 143 56 255 
-1.603216 -1.746148 -9.509991 -0.6929786 -0.6370623 0.3375388 165 100 62 255 
-1.300969 -0.3913454 -9.477739 -0.5677447 -0.3717051 -0.7345075 177 142 57 255 
-1.323412 -0.2562899 -9.493576 -0.8420528 -0.1628734 -0.5142173 186 132 54 255 
-1.331943 -0.03624166 -9.518394 -0.9795642 -0.03625782 -0.1978369 213 116 51 255 
-1.341207 0.1848645 -9.467024 -0.952675 -0.294225 0.07643374 228 122 41 255 
-1.455003 -0.8484679 -9.469084 -0.5285746 0.1324003 -0.8384981 131 153 70 255 
-1.417275 -0.6978379 -9.464515 -0.2115944 0.3117997 -0.9262877 175 163 51 255 
-1.442379 -0.7634252 -9.467419 -0.4491549 0.1114935 -0.88647 151 157 59 255 
-1.117429 -0.486709 -9.462685 -0.179451 -0.739694 -0.6485754 159 149 72 255 
-1.478429 -1.753021 -9.487122 0.2123209 -0.9738129 -0.08129209 151 109 64 255 
-0.2768718 -0.3829481 -9.49449 0.4667134 -0.6971217 0.5442425 206 145 43 255 
-1.524619 -0.9747424 -9.487101 -0.4255566 0.5973154 -0.6797911 135 153 66 255 
-1.470495 -0.9355785 -9.481323 -0.2260121 0.3389284 -0.9132613 134 153 66 255 
-1.496286 -0.902985 -9.460247 -0.6476406 0.4584862 -0.6085656 136 150 71 255 
-0.7010021 -0.4833705 -9.458965 0.07253417 -0.9198193 -0.3855792 181 145 55 255 
-1.240793 0.8115445 -9.528938 -0.8930365 0.4291784 0.1352467 183 148 58 255 
-0.6132473 -0.4502072 -9.503191 0.0461226 -0.9249963 -0.3771666 177 146 58 255 
-1.329282 -0.1125751 -9.510399 -0.9464129 -0.04933956 -0.3191682 203 122 52 255 
-0.6904594 -0.4384293 -9.544174 0.1199264 -0.8606756 -0.4948285 174 146 59 255 
-1.5917 -1.759779 -9.519945 -0.4492919 -0.8474122 0.2828945 173 101 61 255 
-1.627558 -1.716048 -9.54291 -0.8472767 -0.5261126 0.07299082 170 102 62 255 
-1.29642 -0.8067087 -9.443004 0.5215133 -0.09646195 -0.847773 133 172 51 255 
0.03850874 0.1436998 -9.443263 0.9901058 -0.004401371 0.1402538 211 160 32 255 
0.03243651 0.1609603 -9.451877 0.8286449 0.5575891 0.0494171 215 156 32 255 
-0.07240666 0.1808002 -9.442421 -0.2470571 0.9522318 0.1794924 233 71 63 255 
-0.007695625 -0.2489317 -9.455864 0.7207295 -0.3024275 0.623768 215 148 43 255 
-0.003866571 -0.2241793 -9.446149 0.7516211 0.01662223 0.6593856 213 157 39 255 
-0.01214125 -0.2120599 -9.443658 0.7390731 0.06722243 0.6702627 212 156 39 255 
-0.02602722 0.197224 -9.450055 0.2393696 0.9708303 0.01381201 219 166 28 255 
-0.1054171 -0.2469776 -9.427544 0.04096418 -0.999071 -0.01338463 228 119 44 255 
-0.09379658 0.5779694 -9.449299 0.5626349 -0.4744585 -0.6770015 188 179 43 255 
-0.2591247 0.8678513 -9.431595 0.4802707 0.459445 -0.7471616 187 182 42 255 
-0.01064998 -0.187352 -9.443831 0.9067809 0.1237701 0.4030252 226 145 36 255 
-0.2849204 0.2165611 -9.430148 0.7960765 -0.5765714 -0.183923 217 172 26 255 
-0.2847003 0.2355692 -9.454541 0.8086845 -0.5381939 -0.2374377 216 177 24 255 
-0.03314605 -0.1345633 -9.442253 0.68189 0.03525626 0.7306046 228 170 29 255 
-0.2089746 0.2932764 -9.447805 0.7133564 -0.6437073 0.2770624 216 161 31 255 
-0.02412116 -0.06007269 -9.447358 0.8338087 0.06736211 0.5479285 223 150 36 255 
-0.2012565 0.3062227 -9.441433 0.8964345 -0.2848904 0.339474 219 159 32 255 
-0.1602 0.4579037 -9.468998 0.8314865 -0.3576402 0.4251161 209 148 45 255 
-0.1364654 0.535651 -9.446609 0.9411249 -0.3224773 -0.1014513 187 167 51 255 
-0.1288723 0.5517071 -9.445102 0.7292132 -0.5805009 -0.3623076 187 168 49 255 
-0.1573911 0.7227435 -9.446136 0.3945844 0.03149742 -0.9183197 190 184 32 255 
0.01523608 0.1733525 -9.455673 0.6246574 0.7797546 0.04225935 217 158 31 255 
-0.1718476 0.7717779 -9.460805 0.3218043 0.1091243 -0.9404966 184 181 39 255 
-0.03292421 -0.3060417 -9.449719 0.1028799 -0.3550972 0.9291511 175 160 51 255 
-0.05762915 0.1929266 -9.464695 -0.1468114 0.9749641 0.1670076 231 113 51 255 
-0.430725 0.9957755 -9.464645 0.3079554 0.540316 -0.783085 208 180 32 255 
-0.1972231 0.7996879 -9.457847 0.2176161 0.4310999 -0.8756689 183 184 36 255 
-0.5313016 0.9795274 -9.45087 0.2009947 0.4805608 -0.8536173 212 184 25 255 
-0.09630807 -0.2570584 -9.458546 -0.2779711 -0.8773469 0.3911453 228 120 44 255 
-0.2563377 0.8136766 -9.453783 0.2609133 0.4504566 -0.8538226 186 181 40 255 
-0.2409889 0.2618265 -9.467859 0.5254995 -0.8489097 0.05659278 216 160 33 255 
-0.01327518 -0.1576492 -9.448426 0.6977022 0.08622003 0.7111806 211 170 33 255 
-0.5837787 1.02105 -9.451627 0.2685905 0.212585 -0.9395035 214 188 21 255 
-0.01764686 -0.124805 -9.451144 0.489756 0.02977651 0.8713509 198 163 39 255 
-0.02958243 -0.1035145 -9.443391 0.7952865 -0.2066823 0.5699139 201 163 37 255 
-0.6551728 1.060443 -9.451018 0.3595443 0.5217979 -0.7735986 213 187 24 255 
-0.01470448 -0.08391619 -9.44527 0.7757049 -0.05927888 0.6283056 208 164 32 255 
-0.307959 0.8695775 -9.458646 0.4841136 0.3457475 -0.8037989 190 184 37 255 
0.003743588 -0.05642598 -9.471577 0.9270473 0.03130109 0.3736357 213 155 38 255 
-0.5984974 1.046186 -9.447094 0.09305581 0.4412516 -0.8925456 220 187 19 255 
-0.002704911 -0.0003699013 -9.456133 0.8652642 0.1792454 0.4681762 205 154 36 255 
-0.08696594 0.6013409 -9.446599 0.7091559 0.1185817 -0.6950082 173 175 52 255 
-0.01516824 -0.004747933 -9.442678 0.7760534 0.02199998 0.6302834 207 147 38 255 
-0.3528496 0.9496405 -9.438276 0.4319546 0.5383211 -0.7236198 207 182 27 255 
-0.100636 0.6190672 -9.448855 0.634398 0.3597741 -0.6841796 177 178 45 255 
-0.1621763 0.6981814 -9.452088 0.4722458 0.2222828 -0.8529797 186 186 32 255 
-0.1148582 0.6725732 -9.440458 0.428152 0.2396313 -0.8713568 188 187 31 255 
-0.08633114 0.7553464 -9.426381 0.2053442 0.1109834 -0.9723767 187 184 37 255 
0.0250553 0.1233901 -9.438037 0.8204861 -0.5236389 -0.2293579 224 147 34 255 
-1.297555 -0.8231128 -9.436275 0.5067143 -0.4049603 -0.7610833 117 166 65 255 
0.01777985 0.1538293 -9.429968 0.9368517 0.296527 0.1854201 210 162 30 255 
0.01755987 0.1650279 -9.437275 0.9207016 0.3420155 0.1879736 212 162 30 255 
-0.5307341 1.03626 -9.427886 0.2601804 0.3966942 -0.8803067 210 183 26 255 
-0.05495631 -0.2339355 -9.421361 0.3567911 -0.3932091 0.8474 218 152 38 255 
-0.06182581 0.1842046 -9.426456 -0.3499735 0.9083125 0.2291005 224 142 37 255 
-0.08647505 -0.2468492 -9.428738 0.1112824 -0.9186004 0.3791959 234 133 39 255 
-0.5705905 1.051085 -9.438681 0.2936442 0.5242624 -0.799326 202 188 23 255 
-0.01360113 0.1853536 -9.433106 0.5375484 0.8391181 0.08320241 217 162 27 255 
-0.1940845 0.8225135 -9.439804 0.1949401 0.6486591 -0.73569 184 185 31 255 
-0.04213502 0.1971201 -9.429582 -0.2544267 0.942684 0.2159029 228 158 32 255 
-0.08669913 0.5714282 -9.420864 0.662985 -0.7485904 0.007964132 200 184 34 255 
-0.1105834 0.559596 -9.419281 0.5627984 -0.8258347 -0.03542562 167 166 60 255 
-0.08042309 0.5860438 -9.437656 0.8699336 -0.2937117 -0.3961679 178 175 51 255 
-0.3046374 0.1811509 -9.443773 0.9638452 0.2239681 -0.1443633 216 168 28 255 
-0.3080006 0.1868441 -9.415525 0.9960433 -0.04183165 -0.07840909 215 167 28 255 
-0.3032991 0.1964621 -9.440805 0.8950303 -0.3336564 -0.2959633 217 169 27 255 
-0.3098561 0.9247247 -9.427084 0.5376877 0.4489592 -0.7136719 199 181 37 255 
-0.2715011 0.2400245 -9.432057 0.7290499 -0.6676581 -0.1507282 215 178 23 255 
-0.03089945 -0.09208766 -9.428633 0.8509126 -0.2139755 0.4797522 225 155 34 255 
-0.03178282 -0.05981061 -9.418283 0.9321282 -0.05950414 0.3572063 223 157 33 255 
-0.0930272 0.7323376 -9.428207 0.2565773 -0.101741 -0.9611539 192 184 35 255 
-0.2197003 0.2898292 -9.434329 0.7296885 -0.6443846 0.2287426 218 166 29 255 
-0.3809611 0.9830685 -9.429547 0.532702 0.4384103 -0.7238957 204 179 35 255 
-0.02522229 -0.04971287 -9.440989 0.862223 -0.1279552 0.4901011 225 157 32 255 
-0.4282092 1.015628 -9.442576 0.01974914 0.8868871 -0.4615638 208 177 35 255 
-0.03594317 -0.0146737 -9.413819 0.9054209 0.07228987 0.4183147 220 158 31 255 
-0.01745906 0.02855859 -9.443502 0.9727371 -0.001726817 0.231904 215 163 30 255 
-0.2204908 0.3620223 -9.406077 0.9346076 -0.006813788 0.3556153 217 151 37 255 
-0.02194948 0.06170681 -9.442115 0.9843341 -0.1587757 -0.07665952 209 159 32 255 
-0.01885137 0.05623991 -9.426924 0.8471215 -0.3053676 -0.4348974 215 150 36 255 
-0.01243474 0.0793932 -9.437698 0.8174012 -0.4553483 -0.3528642 216 148 36 255 
0.005187674 0.0984498 -9.427207 0.6676015 -0.5105721 -0.5418712 221 142 36 255 
-0.1692394 0.4790702 -9.429065 0.8349846 -0.4565422 0.3071969 200 148 50 255 
-0.1568723 0.4979951 -9.431988 0.820289 -0.5418121 0.1832097 194 164 45 255 
-0.1450777 0.5157127 -9.438636 0.9020604 -0.4269801 0.06304783 191 167 48 255 
-0.1286823 0.5470701 -9.413144 0.7955905 -0.5551674 -0.2425384 187 167 49 255 
-1.317839 -0.8701354 -9.427571 0.8559278 -0.1910519 -0.4805068 111 154 80 255 
-1.30875 -0.8509752 -9.42826 0.6930587 -0.4090792 -0.5935687 119 164 69 255 
0.002416888 0.1096411 -9.450212 0.7645301 -0.5549142 -0.3279697 218 146 33 255 
0.02484935 0.1388416 -9.419846 0.964921 0.2624953 0.004861791 212 166 29 255 
-0.1310745 0.7189236 -9.440044 0.281285 0.05410762 -0.9580977 195 188 26 255 
-0.4937016 1.004483 -9.436484 -0.1369251 0.6347561 -0.7604842 191 187 22 255 
-1.274031 -0.7797142 -9.431611 0.4739823 0.2208977 -0.8523761 132 172 52 255 
-0.514477 1.015354 -9.432374 0.2019419 0.4075637 -0.890568 214 185 23 255 
-1.294715 -0.7808138 -9.436962 0.3581454 0.3852159 -0.8504944 70 130 108 255 
-0.5544629 1.018216 -9.440624 0.2787718 0.2693669 -0.9218068 208 189 21 255 
-0.03048254 -0.2761976 -9.439912 0.339425 -0.2565435 0.904973 210 154 41 255 
-0.05344431 -0.2706609 -9.442101 -0.3286583 -0.438419 0.8365241 227 146 35 255 
-0.04126542 -0.2484636 -9.43198 0.3287171 -0.2964342 0.8967006 224 151 35 255 
-0.1118281 0.7692534 -9.433095 0.3153422 0.07880962 -0.9456999 194 184 32 255 
-0.07444268 -0.2598444 -9.444793 -0.3216787 -0.7534688 0.5734176 227 145 36 255 
-0.1264281 0.7867808 -9.436958 0.3864062 0.2760272 -0.8800564 182 189 26 255 
-0.02471611 -0.2208983 -9.435144 0.4928523 -0.1723816 0.8528665 216 160 37 255 
-0.1494459 0.8069566 -9.436499 0.3337209 0.5066725 -0.7949297 177 179 42 255 
-0.6115506 1.055553 -9.441469 0.1673933 0.5806526 -0.7967573 219 187 20 255 
-0.1468802 0.4942667 -9.463693 0.8655369 -0.3395203 0.3682008 194 160 46 255 
-0.02328097 -0.1866532 -9.42458 0.6341329 0.1156654 0.7645241 227 141 37 255 
-0.07899629 0.6379583 -9.417181 0.8642011 0.2325016 -0.4462056 179 171 50 255 
-0.03628184 -0.1607638 -9.429146 0.6917721 0.303519 0.655231 198 167 36 255 
-0.1080724 0.6741948 -9.43634 0.5921966 0.1621652 -0.7893071 182 180 44 255 
-0.01507687 0.01316366 -9.447673 0.8608559 0.1827871 0.4748853 220 158 31 255 
-0.3118523 0.8987647 -9.445888 0.515209 0.4276175 -0.7427671 204 184 30 255 
-0.3322997 0.9302939 -9.442659 0.4418214 0.4951642 -0.7480684 206 183 29 255 
-0.4170011 1.00821 -9.451847 0.4278936 0.5363886 -0.7274575 210 179 32 255 
-0.9910409 0.1365527 -9.42835 -0.94332 0.1403952 0.3007268 237 74 60 255 
-0.2026777 0.179675 -9.428696 0.0842731 0.9470713 0.3097647 219 172 27 255 
-0.9952742 0.1253905 -9.42835 -0.7878927 0.5427907 0.2908666 237 74 60 255 
-0.9942935 0.1720305 -9.42835 -0.8922288 -0.3412538 0.2957594 236 81 57 255 
-1.01244 0.1966859 -9.42835 -0.5477273 -0.8084763 0.2153159 232 82 57 255 
-1.472672 -0.8219399 -9.427692 -0.964391 0.2577401 -0.05933004 179 154 42 255 
-1.469682 -0.7841238 -9.42835 -0.9979902 0.03406421 0.05343372 188 158 39 255 
-0.2382318 0.1771461 -9.42835 -0.2808577 0.9439921 0.1731989 218 171 27 255 
-1.318961 -0.7443296 -9.426462 0.6050628 0.1689131 -0.7780535 118 166 66 255 
