ply
format ascii 1.0
comment VCGLIB generated
element vertex 618
property float x
property float y
property float z
property float nx
property float ny
property float nz
property uchar red
property uchar green
property uchar blue
property uchar alpha
element face 0
property list uchar int vertex_indices
end_header
0.1562977 0.9379001 -9.480954 0.09166651 0.002451079 -0.9957868 178 181 36 255 
0.1716042 0.9225936 -9.480283 0.159584 0.06886236 -0.9847797 162 173 56 255 
0.1869106 0.9225936 -9.476633 0.2124421 0.06252781 -0.9751711 166 185 29 255 
0.1716042 0.9379001 -9.478622 0.1840028 0.002536839 -0.9829225 176 177 45 255 
0.1869106 0.9379001 -9.475065 0.1482294 -0.01712443 -0.9888048 179 177 45 255 
0.1409903 0.9532065 -9.483912 0.1910889 -0.1870514 -0.9635854 188 187 24 255 
0.1562977 0.9532065 -9.481488 0.1098388 -0.2042126 -0.9727449 187 187 24 255 
0.1409903 0.968514 -9.487386 0.09488562 -0.2086703 -0.9733722 176 179 39 255 
0.1562977 0.968514 -9.487113 0.06150942 -0.3036946 -0.9507819 171 178 41 255 
0.1716042 0.9532065 -9.479993 0.1460842 -0.2166056 -0.9652676 172 179 41 255 
0.1869106 0.9532065 -9.477174 0.1638968 -0.2122982 -0.9633625 186 180 36 255 
0.1716042 0.968514 -9.485925 0.1280413 -0.2921269 -0.9477697 172 178 41 255 
0.1869106 0.968514 -9.482725 0.189662 -0.3431883 -0.9199185 180 178 39 255 
0.1716042 0.9838204 -9.488618 0.07206624 -0.09355912 -0.9930021 186 182 32 255 
0.1869106 0.9838204 -9.487995 0.08414833 -0.1781674 -0.9803956 181 178 39 255 
0.2022171 0.9532065 -9.475258 0.1197897 -0.1755926 -0.9771477 187 180 36 255 
0.2022171 0.968514 -9.479042 0.2235443 -0.3091475 -0.9243678 194 181 35 255 
0.2175245 0.968514 -9.475144 0.2515927 -0.2222428 -0.9419709 196 182 34 255 
0.2022171 0.9838204 -9.486174 0.2501015 -0.2675433 -0.9305212 205 180 33 255 
0.2175245 0.9838204 -9.479807 0.3919964 -0.2306243 -0.8905904 183 181 38 255 
0.2489185 0.9838204 -9.458965 0.6914039 -0.120958 -0.7122709 209 183 27 255 
0.1256838 1.116991 -9.458965 0.468382 0.2134171 -0.8573631 211 186 23 255 
0.2481375 0.9815402 -9.458965 0.6243283 -0.1461953 -0.7673599 209 183 28 255 
0.1229544 1.121581 -9.458965 0.4393679 0.3256798 -0.8371908 210 186 23 255 
0.2493067 0.9991269 -9.458965 0.7480272 0.09134327 -0.6573521 208 183 27 255 
0.2481375 1.004081 -9.458965 0.6960585 0.137477 -0.7047005 208 183 26 255 
0.2464256 1.014433 -9.458965 0.6061873 0.1641108 -0.7782061 208 182 25 255 
0.2411184 1.029741 -9.458965 0.6600975 0.07467823 -0.7474588 207 180 29 255 
0.2422047 1.045047 -9.458965 0.7007678 -0.07497396 -0.7094388 207 180 31 255 
0.246747 1.060354 -9.458965 0.3493353 0.3145606 -0.8826191 209 179 30 255 
0.1409903 1.089546 -9.458965 0.359112 0.488474 -0.7952558 206 183 25 255 
0.1390886 1.090968 -9.458965 0.3757401 0.4048837 -0.8335998 207 183 25 255 
0.1562977 1.080216 -9.458965 0.231245 0.580348 -0.780847 194 186 25 255 
0.1716042 1.076527 -9.458965 0.06689669 0.6741881 -0.7355238 189 187 24 255 
0.1869106 1.077005 -9.458965 -0.04723439 0.7553945 -0.6535657 196 184 24 255 
0.2481375 0.5356879 -9.458965 0.2600806 -0.4081925 -0.875064 175 173 54 255 
0.1289167 1.106274 -9.458965 0.4916647 0.2082411 -0.8455185 211 184 25 255 
0.2481375 0.9600787 -9.458965 0.4984007 0.2214437 -0.8381882 205 184 28 255 
0.2022171 1.078238 -9.458965 -0.07309771 0.6931762 -0.717052 205 184 24 255 
0.2462425 0.968514 -9.458965 0.5697209 0.02227949 -0.8215362 205 183 28 255 
0.2175245 1.081794 -9.458965 0.1638778 0.6957646 -0.6993253 213 183 23 255 
0.232831 1.068971 -9.458965 0.4555264 0.5289662 -0.7160242 213 182 23 255 
0.2288523 1.07566 -9.458965 0.4684396 0.5292325 -0.7074443 213 182 23 255 
0.1103773 1.135431 -9.458965 0.4074335 0.4401683 -0.8001561 217 187 22 255 
0.1088362 1.136887 -9.458965 0.4890441 0.3275621 -0.8084176 217 187 22 255 
0.1009226 1.152194 -9.458965 0.4075241 0.1514446 -0.9005491 214 189 22 255 
0.09819794 1.167501 -9.458965 0.2558766 0.01087974 -0.9666483 207 187 27 255 
0.1007471 1.182807 -9.458965 0.3054352 0.02826477 -0.9517933 200 185 28 255 
0.09507084 1.20791 -9.458965 0.3845229 0.2171112 -0.8972207 204 186 27 255 
0.09050751 1.213421 -9.458965 0.327557 0.195702 -0.9243415 214 187 24 255 
0.08485508 1.228728 -9.458965 0.3908476 0.08989797 -0.9160548 215 186 24 255 
0.08268833 1.244034 -9.458965 0.5728184 0.04126859 -0.8186428 219 186 24 255 
0.2552814 0.5399261 -9.458965 0.2329227 -0.4778405 -0.8470038 171 172 56 255 
0.2634439 0.545114 -9.458965 0.3935139 -0.4490276 -0.8021976 169 172 56 255 
0.2732096 0.5552325 -9.458965 0.6912758 -0.2105082 -0.6912482 178 177 45 255 
0.2744732 0.570539 -9.458965 0.6744956 0.02264031 -0.7379317 179 179 43 255 
0.2693958 0.5858464 -9.458965 0.4884713 0.1303677 -0.8627863 190 185 31 255 
0.26789 0.6011529 -9.458965 0.4579622 0.007842717 -0.8889371 185 183 37 255 
0.2693119 0.6164594 -9.458965 0.4736509 -0.02020548 -0.8804809 177 180 44 255 
0.2697926 0.6317658 -9.458965 0.5314432 0.01426945 -0.8469738 177 180 44 255 
0.2692022 0.6470733 -9.458965 0.57425 -0.04454691 -0.8174671 175 180 43 255 
0.2713261 0.6623797 -9.458965 0.6347717 -0.1316066 -0.7614096 173 179 45 255 
0.2759962 0.6776862 -9.458965 0.6590747 -0.1896473 -0.7277737 172 179 47 255 
0.2787514 0.6872334 -9.458965 0.4912198 -0.2103939 -0.8452441 176 181 43 255 
0.282548 0.6929927 -9.458965 0.3441004 -0.2304014 -0.9102253 180 183 38 255 
0.2940578 0.7049966 -9.458965 0.2474022 -0.2644957 -0.9321128 196 189 23 255 
0.2969666 0.7083001 -9.458965 0.2095436 -0.2205003 -0.9526128 196 188 24 255 
0.3093643 0.7146811 -9.458965 0.2255448 -0.3322279 -0.9158353 197 188 24 255 
0.3168736 0.7236066 -9.458965 0.3902077 -0.1156866 -0.9134302 187 184 35 255 
0.315546 0.7389131 -9.458965 0.4264505 0.07398058 -0.9014804 191 184 36 255 
0.311758 0.7542195 -9.458965 0.3981875 0.115314 -0.9100272 183 188 31 255 
0.3093643 0.7622371 -9.458965 0.3867192 0.2007335 -0.9000857 186 189 28 255 
0.3036785 0.769527 -9.458965 0.3825232 0.266152 -0.884782 189 190 26 255 
0.2940578 0.7839932 -9.458965 0.4157877 0.2479865 -0.874999 187 187 30 255 
0.2936764 0.7848334 -9.458965 0.3715931 0.3352875 -0.8657372 187 187 31 255 
0.2787514 0.7937188 -9.458965 0.2210833 0.4540015 -0.8631366 184 185 34 255 
0.2649879 0.8001399 -9.458965 0.3258513 0.2180782 -0.9199255 179 182 40 255 
0.2634439 0.8038259 -9.458965 0.4059331 0.113248 -0.906859 180 182 40 255 
0.2617931 0.8154464 -9.458965 0.5878795 0.04516565 -0.8076867 187 182 40 255 
0.26161 0.8307528 -9.458965 0.5904548 0.0132777 -0.8069615 189 181 40 255 
0.2619324 0.8460603 -9.458965 0.4976706 -0.00211585 -0.8673636 171 176 51 255 
0.2626724 0.8613667 -9.458965 0.4863203 0.003773232 -0.8737725 184 181 42 255 
0.2617912 0.8766732 -9.458965 0.5599947 -0.003932752 -0.8284869 190 184 37 255 
0.2609444 0.8919797 -9.458965 0.5756564 -0.01563519 -0.8175422 191 183 36 255 
0.2630196 0.9072871 -9.458965 0.6921367 0.008790466 -0.7217129 198 184 33 255 
0.2614374 0.9225936 -9.458965 0.6511146 0.07035161 -0.7557119 202 184 31 255 
0.2593431 0.9379001 -9.458965 0.5333853 0.1299158 -0.8358362 203 184 27 255 
0.2542248 0.9532065 -9.458965 0.5075449 0.3074267 -0.8049144 202 183 28 255 
0.2481375 0.9838204 -9.459674 0.6311508 -0.1289033 -0.7648743 209 183 27 255 
0.1256838 1.07566 -9.473898 0.3069864 0.5040163 -0.807296 192 183 33 255 
0.2481375 0.9991269 -9.460228 0.6740389 0.07413475 -0.7349664 208 183 27 255 
0.1103773 1.090968 -9.473293 0.3979655 0.2585543 -0.880212 201 185 27 255 
0.1256838 1.090968 -9.465239 0.4063023 0.3583542 -0.840536 205 184 27 255 
0.09507084 1.121581 -9.472678 0.4239742 0.2396988 -0.8733788 212 183 23 255 
0.1103773 1.106274 -9.469435 0.4172042 0.2126431 -0.8835856 201 186 26 255 
0.2175245 0.5399261 -9.468986 0.291806 -0.386691 -0.8748253 183 181 45 255 
0.1256838 1.106274 -9.461098 0.5052183 0.1971618 -0.8401677 211 185 24 255 
0.232831 0.5399261 -9.465786 0.2062152 -0.4227103 -0.8824916 192 182 38 255 
0.1103773 1.121581 -9.465617 0.4336648 0.2923505 -0.8523298 212 184 23 255 
0.2481375 0.5399261 -9.460942 0.254593 -0.4443088 -0.8589366 177 175 51 255 
0.232831 0.5552325 -9.472934 0.1588401 -0.3625067 -0.9183456 192 184 35 255 
0.1716042 1.060354 -9.474094 -0.006499138 0.5979923 -0.8014755 187 178 31 255 
0.2481375 0.5552325 -9.469677 0.2065003 -0.3659129 -0.90745 187 182 39 255 
0.232831 0.9991269 -9.472593 0.5767179 0.0456209 -0.8156686 205 182 30 255 
0.232831 1.014433 -9.46949 0.5842555 0.1587271 -0.7958965 206 182 27 255 
0.2481375 0.5858464 -9.473827 0.5224099 0.03980173 -0.851765 183 181 35 255 
0.232831 1.029741 -9.466589 0.6383497 0.02116838 -0.7694555 201 180 28 255 
0.2481375 0.6011529 -9.472964 0.5914336 -0.001142473 -0.8063529 179 179 38 255 
0.2481375 0.6164594 -9.473931 0.6243943 -0.08178104 -0.7768164 177 179 41 255 
0.2175245 1.060354 -9.472296 0.2129445 0.5968471 -0.7735814 212 180 24 255 
0.232831 1.045047 -9.468776 0.6623096 0.01368829 -0.7491053 203 179 29 255 
0.2481375 0.7389131 -9.473415 0.4156136 0.1888279 -0.8897244 187 186 30 255 
0.232831 1.060354 -9.466021 0.4698124 0.3484959 -0.8110653 211 180 25 255 
0.2481375 0.7542195 -9.47156 0.3266672 0.1021825 -0.9395996 191 192 21 255 
0.1409903 1.07566 -9.468373 0.2916377 0.5979522 -0.7465926 202 183 26 255 
0.2481375 0.769527 -9.469637 0.3087038 0.1292989 -0.9423289 198 193 19 255 
0.1562977 1.07566 -9.462531 0.2149078 0.6310303 -0.7453963 192 186 25 255 
0.2481375 0.7848334 -9.467179 0.339798 0.05374128 -0.9389618 196 194 19 255 
0.1716042 1.07566 -9.459846 0.03953843 0.6963059 -0.7166554 189 187 24 255 
0.2481375 0.8001399 -9.467649 0.4222722 0.02208349 -0.9062001 188 187 32 255 
0.1869106 1.07566 -9.460999 -0.06748727 0.7800418 -0.6220774 195 184 24 255 
0.232831 0.8154464 -9.473531 0.2769891 0.003387839 -0.9608671 187 183 36 255 
0.2481375 0.8154464 -9.468059 0.4534467 0.005959441 -0.8912635 189 184 35 255 
0.2022171 1.07566 -9.462006 -0.01367611 0.7179629 -0.6959471 198 185 24 255 
0.2481375 0.8307528 -9.467731 0.4868593 0.04866295 -0.8721238 189 181 39 255 
0.2175245 1.07566 -9.462754 0.142834 0.5375969 -0.8310163 213 182 23 255 
0.2481375 0.8460603 -9.465688 0.4840416 0.08795227 -0.8706136 174 177 48 255 
0.09507084 1.136887 -9.467726 0.4605162 0.3102269 -0.8316755 210 186 23 255 
0.232831 0.8613667 -9.471664 0.7122981 0.04712477 -0.7002933 189 188 25 255 
0.07976437 1.152194 -9.469924 0.5354168 0.2860476 -0.7946733 204 180 36 255 
0.2481375 0.8613667 -9.464073 0.4379235 -0.03471252 -0.8983418 187 185 34 255 
0.09507084 1.152194 -9.46145 0.3995872 0.2396441 -0.8848169 211 188 24 255 
0.232831 0.8766732 -9.471417 0.3363685 0.01300694 -0.9416407 169 179 42 255 
0.07976437 1.167501 -9.465242 0.5012324 0.07273439 -0.8622504 200 181 34 255 
0.2481375 0.8766732 -9.467839 0.4396159 -0.1430643 -0.886719 190 183 37 255 
0.09507084 1.167501 -9.459673 0.2810051 0.02046078 -0.9594882 205 186 28 255 
0.2022171 0.8919797 -9.472186 0.1999449 0.07785197 -0.9767093 177 188 22 255 
0.07976437 1.182807 -9.46638 0.4783477 -0.02872025 -0.8777008 179 183 35 255 
0.2175245 0.8919797 -9.469753 0.05701086 0.1315392 -0.9896703 191 189 22 255 
0.09507084 1.182807 -9.460783 0.3267743 -0.01932204 -0.9449049 196 185 29 255 
0.2022171 0.9072871 -9.472959 0.2071089 -0.04437605 -0.977311 174 189 20 255 
0.2175245 0.9072871 -9.470848 0.1150168 -0.069015 -0.9909633 184 190 20 255 
0.06445694 1.228728 -9.474012 0.7502385 0.01284803 -0.6610425 219 185 23 255 
0.232831 0.8919797 -9.471292 -0.006446888 0.1056501 -0.9943825 190 189 22 255 
0.07976437 1.198114 -9.466197 0.495946 0.1051795 -0.8619599 210 185 26 255 
0.2481375 0.8919797 -9.471002 0.3961406 0.01768933 -0.9180194 191 183 36 255 
0.09507084 1.198114 -9.460774 0.5647473 0.09748785 -0.8194857 199 185 29 255 
0.232831 0.9072871 -9.469484 0.08451663 0.07274485 -0.9937631 186 188 24 255 
0.07976437 1.213421 -9.462452 0.4814377 0.15011 -0.8635305 211 188 24 255 
0.2481375 0.9072871 -9.46782 0.3441681 0.1212521 -0.9310458 197 184 32 255 
0.07976437 1.228728 -9.460971 0.5183334 0.05509113 -0.8534023 217 186 24 255 
0.2022171 0.9225936 -9.473654 0.1422221 -0.02916034 -0.9894052 168 188 23 255 
0.07976437 1.244034 -9.460595 0.5600081 -0.1203898 -0.8196934 219 185 24 255 
0.2175245 0.9225936 -9.471966 0.1654101 -0.01200892 -0.9861518 183 189 22 255 
0.2022171 0.9379001 -9.473861 0.1137927 -0.03128675 -0.9930118 183 182 34 255 
0.2634439 0.5552325 -9.467463 0.4026882 -0.3191403 -0.8578996 177 176 47 255 
0.2175245 0.9379001 -9.471881 0.2114256 -0.02075966 -0.9771736 184 182 34 255 
0.2634439 0.570539 -9.469045 0.4830867 0.07369662 -0.8724656 187 183 36 255 
0.232831 0.9225936 -9.468025 0.2060739 0.06887553 -0.9761095 180 185 30 255 
0.2481375 0.9225936 -9.465347 0.3077526 0.1119207 -0.9448609 199 185 30 255 
0.2634439 0.5858464 -9.462852 0.5342752 0.1679628 -0.8284555 192 186 30 255 
0.232831 0.9379001 -9.467463 0.2475103 0.03147732 -0.9683738 206 188 25 255 
0.2634439 0.6011529 -9.461699 0.5579708 0.01683189 -0.8296899 185 183 35 255 
0.2481375 0.9379001 -9.463794 0.328679 0.09924524 -0.9392127 203 185 27 255 
0.2634439 0.6164594 -9.462229 0.5493761 -0.03754802 -0.8347312 175 178 45 255 
0.2175245 0.9532065 -9.472892 0.2676964 -0.09690712 -0.9586176 195 184 32 255 
0.2634439 0.6317658 -9.462818 0.586614 -0.02397595 -0.8095117 174 178 47 255 
0.232831 0.9532065 -9.467278 0.3597795 0.008558371 -0.9329981 204 185 28 255 
0.2481375 0.9532065 -9.461591 0.361395 0.2342876 -0.9024982 204 184 28 255 
0.2634439 0.6470733 -9.46301 0.6268775 -0.06781998 -0.7761604 172 178 46 255 
0.232831 0.968514 -9.467956 0.4963486 -0.1043822 -0.8618251 199 183 31 255 
0.2634439 0.6623797 -9.465505 0.6193004 -0.1423178 -0.7721481 173 178 46 255 
0.232831 0.9838204 -9.47118 0.5716901 -0.1185786 -0.8118556 202 182 31 255 
0.2634439 0.6776862 -9.469875 0.5515534 -0.1124031 -0.8265316 172 179 46 255 
0.2634439 0.6929927 -9.468945 0.5181254 -0.01223868 -0.8552172 190 188 26 255 
0.2787514 0.6929927 -9.460539 0.4256429 -0.1897256 -0.8847781 178 182 41 255 
0.2634439 0.7083001 -9.4692 0.470606 -0.01327595 -0.8822436 191 190 21 255 
0.2787514 0.7083001 -9.46293 0.2979209 -0.09832741 -0.949513 193 191 20 255 
0.2634439 0.7236066 -9.469365 0.4361331 0.06529479 -0.8975102 181 186 31 255 
0.2787514 0.7236066 -9.463254 0.1922335 -0.01268842 -0.9812672 193 191 19 255 
0.2940578 0.7083001 -9.459686 0.2197509 -0.1925564 -0.9563637 196 189 23 255 
0.2940578 0.7236066 -9.462512 0.08942146 -0.09906848 -0.9910546 197 190 19 255 
0.3093643 0.7236066 -9.461953 0.1996618 -0.1365273 -0.9703069 199 190 20 255 
0.2634439 0.7389131 -9.467265 0.2977325 0.05000801 -0.9533386 174 184 37 255 
0.2787514 0.7389131 -9.464038 0.1365314 -0.06815401 -0.9882885 191 189 23 255 
0.2634439 0.7542195 -9.467594 0.1862862 0.04047983 -0.9816613 183 195 16 255 
0.2787514 0.7542195 -9.46563 0.1147095 -0.04247826 -0.9924905 188 191 23 255 
0.2940578 0.7389131 -9.463233 0.08804923 -0.04389481 -0.9951485 196 190 19 255 
0.3093643 0.7389131 -9.461326 0.2465295 0.03927604 -0.9683391 192 185 33 255 
0.2940578 0.7542195 -9.463862 0.183713 0.01528194 -0.9828612 188 195 18 255 
0.3093643 0.7542195 -9.459699 0.2765208 0.09456675 -0.9563438 183 188 30 255 
0.2634439 0.769527 -9.46611 0.1281905 0.1148222 -0.9850802 197 193 19 255 
0.2787514 0.769527 -9.466176 0.08685661 0.08491081 -0.9925957 194 191 23 255 
0.2634439 0.7848334 -9.463467 0.1794716 0.194427 -0.9643589 193 194 21 255 
0.2787514 0.7848334 -9.46318 0.1285043 0.3166531 -0.9397966 191 190 25 255 
0.2940578 0.769527 -9.463155 0.3035125 0.1433319 -0.9419852 191 191 23 255 
0.2634439 0.8001399 -9.459789 0.4543327 0.2012362 -0.8678052 179 182 40 255 
-0.7199879 0.7236066 -9.458965 -0.6793592 0.1643139 0.7151728 235 77 59 255 
0.003230095 1.36078 -9.458965 0.5718334 0.7993585 -0.1844792 206 174 35 255 
-0.7314911 0.7094674 -9.458965 -0.5004303 0.4071355 0.7640747 237 77 61 255 
-0.005474091 1.366488 -9.458965 0.5044257 0.8462881 -0.1713218 202 170 40 255 
-0.7165585 0.7542195 -9.458965 -0.8235319 -0.1830028 0.5369407 234 80 57 255 
0.06445694 1.304236 -9.458965 0.8139766 0.4068686 -0.4146083 211 182 28 255 
0.06384945 1.305261 -9.458965 0.7322489 0.5810557 -0.3552266 208 180 31 255 
0.07871628 1.274648 -9.458965 0.7732741 0.2649319 -0.5760714 216 185 24 255 
0.03696918 1.335875 -9.458965 0.6972882 0.6985883 -0.1605106 209 178 32 255 
0.03384399 1.338479 -9.458965 0.6050725 0.7801889 -0.1587222 209 178 32 255 
-0.8113117 0.7236066 -9.458965 0.8820956 0.2766685 0.3812635 233 70 58 255 
-0.8203363 0.7542195 -9.458965 0.8264436 -0.04734596 0.5610254 232 81 55 255 
-0.8133373 0.7848334 -9.458965 0.6314027 -0.3917636 0.6692174 229 78 58 255 
-0.7927179 0.8025479 -9.458965 0.2601628 -0.7112086 0.6530679 230 80 56 255 
-0.7314911 0.7825828 -9.458965 -0.7125176 -0.4410558 0.5457001 233 80 57 255 
-0.733489 0.7848334 -9.458965 -0.5224359 -0.6132832 0.5924057 233 80 57 255 
-0.762105 0.8034139 -9.458965 -0.23358 -0.7949165 0.5599537 231 81 57 255 
-0.9750662 0.9379001 -9.458965 -0.9408831 0.28014 0.1904223 228 122 41 255 
-0.9763985 0.9305911 -9.458965 -0.9522569 0.1773744 0.2484857 229 119 41 255 
-0.7314911 0.7236066 -9.466499 -0.4576537 0.2442535 0.854923 235 77 59 255 
-0.7314911 0.7542195 -9.474319 -0.5471475 -0.04747269 0.8356889 234 80 57 255 
0.06445694 1.274648 -9.480708 0.8430657 0.1193683 -0.5243964 213 181 27 255 
0.03384399 1.335875 -9.465556 0.6411104 0.6984318 -0.318073 207 178 33 255 
-0.7927179 0.7542195 -9.487082 0.3001091 -0.1700904 0.9386181 232 79 56 255 
-0.762105 0.7236066 -9.473367 -0.2008537 0.3541552 0.913363 234 79 57 255 
-0.762105 0.7542195 -9.487472 -0.1864819 0.06223472 0.9804853 232 78 57 255 
-0.7927179 0.7848334 -9.473942 0.3442178 -0.4777628 0.808243 231 79 57 255 
-0.762105 0.7848334 -9.478003 -0.179408 -0.524828 0.8320867 231 79 57 255 
0.09648991 1.19291 -9.459871 0.4782396 0.05120115 -0.8767356 200 185 28 255 
0.07264519 1.25424 -9.468311 0.7490565 -0.02296404 -0.6621082 217 184 24 255 
-0.6702642 1.291423 -9.458965 -0.5701033 0.8039141 -0.1694238 211 121 51 255 
-0.7314911 1.245882 -9.458965 -0.5931104 0.7683561 -0.2405181 222 110 49 255 
-0.6499033 1.305261 -9.458965 -0.5485421 0.828068 -0.1157798 208 125 52 255 
-0.7337961 1.244034 -9.458965 -0.6410261 0.7250968 -0.2516351 222 110 49 255 
-0.6090374 1.331681 -9.458965 -0.5385699 0.8417614 -0.03715203 201 131 54 255 
-0.5503349 1.366488 -9.458965 -0.4711864 0.8794063 0.06802859 193 140 56 255 
-0.4253578 1.414501 -9.458965 -0.2433662 0.964949 0.09821587 191 158 50 255 
-0.4865837 1.395271 -9.458965 -0.350743 0.9316605 0.09480626 186 147 58 255 
-0.364131 1.426765 -9.458965 -0.1662039 0.9839312 0.06523618 192 163 47 255 
-0.3572407 1.427715 -9.458965 -0.114119 0.9920127 0.05373707 192 163 47 255 
-0.3029041 1.432656 -9.458965 -0.05185309 0.9985914 0.0112436 193 165 45 255 
-1.04248 0.8154464 -9.458965 -0.3788855 0.8982677 0.2226228 224 120 44 255 
-0.2416773 1.433337 -9.458965 0.04096821 0.9990137 -0.01712885 194 167 44 255 
-0.1192236 1.415749 -9.458965 0.2673257 0.9622468 -0.05116706 199 168 42 255 
-1.037625 0.8175788 -9.458965 -0.5647057 0.7661217 0.3068631 224 121 44 255 
-0.1769552 1.427715 -9.458965 0.1746324 0.9842862 -0.02615815 197 168 43 255 
-0.9891081 0.8766732 -9.458965 -0.7977144 0.4099395 0.4422685 229 117 41 255 
-0.1804504 1.428216 -9.458965 0.1111748 0.9936181 -0.01905703 197 168 43 255 
-0.9473143 0.9991269 -9.458965 -0.8437281 0.5309275 -0.07898681 223 124 44 255 
-0.05799675 1.394073 -9.458965 0.4031805 0.9095182 -0.1011046 200 169 41 255 
-0.9151716 1.039927 -9.458965 -0.7663368 0.6213961 -0.1630797 223 122 44 255 
-0.8981123 1.060354 -9.458965 -0.7510663 0.6349576 -0.1809096 222 121 45 255 
-0.8539448 1.112027 -9.458965 -0.762848 0.6196871 -0.1845288 222 118 46 255 
-0.8465757 1.121581 -9.458965 -0.7722155 0.6044611 -0.1957291 222 117 46 255 
-0.7961102 1.182807 -9.458965 -0.7444801 0.6299903 -0.2210468 221 114 48 255 
-0.7927179 1.186623 -9.458965 -0.7055623 0.6668406 -0.2398031 221 114 48 255 
-0.7314911 1.244034 -9.464286 -0.6275281 0.7328616 -0.2629112 221 110 49 255 
-0.364131 1.427715 -9.473553 -0.124 0.9905519 0.05857414 194 165 45 255 
-0.1804504 1.427715 -9.471025 0.1468682 0.9870453 -0.06458636 201 172 39 255 
-0.9763985 0.9379001 -9.467025 -0.9453887 0.3134352 0.08943495 228 122 41 255 
-0.7927179 1.182807 -9.468497 -0.709887 0.6476585 -0.2767653 221 114 48 255 
-0.03386879 1.373586 -9.492386 0.4639719 0.8604782 -0.2104932 201 172 40 255 
-0.5268087 1.385873 -9.528938 -0.4702179 0.8721257 0.1352475 183 148 58 255 
0.3240242 0.6929927 -9.443658 0.2427845 -0.3304274 -0.912071 195 185 28 255 
0.1562977 1.109673 -9.443658 0.3801645 0.1769653 -0.9078317 207 185 25 255 
0.3093643 0.6786571 -9.443658 0.2586308 -0.2101647 -0.9428366 192 185 29 255 
0.15308 1.121581 -9.443658 0.419662 0.1234302 -0.899249 212 184 25 255 
0.1716042 1.095959 -9.443658 0.1881882 0.4241537 -0.885821 197 185 24 255 
0.3246708 0.6933331 -9.443658 0.2340619 -0.3974149 -0.887286 195 185 28 255 
0.1582346 1.106274 -9.443658 0.3289769 0.2750351 -0.9033991 206 185 25 255 
0.3399782 0.7054677 -9.443658 0.3071335 -0.2788453 -0.909898 181 180 40 255 
0.1869106 1.093921 -9.443658 -0.04095032 0.538383 -0.8417047 187 188 21 255 
0.3423424 0.7083001 -9.443658 0.3435511 -0.1975935 -0.9181119 180 179 41 255 
0.2175245 1.090621 -9.443658 0.5250649 0.7563116 -0.3902559 221 184 22 255 
0.3465519 0.7236066 -9.443658 0.4355142 0.03716772 -0.8994142 180 181 41 255 
0.217124 1.090968 -9.443658 0.4379636 0.8047498 -0.4007066 221 184 22 255 
0.3399782 0.7420306 -9.443658 0.4842467 0.211849 -0.8488964 183 181 38 255 
0.2481375 1.075401 -9.443658 0.4122758 0.7977075 -0.440104 215 183 23 255 
0.3349962 0.7542195 -9.443658 0.5366302 0.2371175 -0.809817 179 180 41 255 
0.2464314 1.07566 -9.443658 0.3033319 0.812876 -0.4972145 215 183 23 255 
0.3416672 0.7389131 -9.443658 0.4436809 0.1934361 -0.8750599 188 185 31 255 
0.232831 1.082373 -9.443658 0.4264084 0.8117773 -0.3989906 212 184 23 255 
0.3093643 0.791162 -9.443658 0.5008497 0.5046906 -0.7031621 189 191 22 255 
0.2022171 1.098093 -9.443658 0.1902652 0.7140585 -0.6737356 221 184 22 255 
0.2996683 0.8001399 -9.443658 0.4847319 0.5396072 -0.6883742 192 191 23 255 
0.1472416 1.136887 -9.443658 0.336896 0.1478086 -0.9298676 210 187 21 255 
0.2940578 0.8042235 -9.443658 0.4015837 0.5306861 -0.7463933 190 182 37 255 
0.1429834 1.152194 -9.443658 0.4880493 0.01496332 -0.8726878 211 189 22 255 
0.2838717 0.8154464 -9.443658 0.5348696 0.2601491 -0.8038887 190 182 38 255 
0.1440134 1.167501 -9.443658 0.5277566 -0.0145568 -0.8492709 210 189 21 255 
0.3279228 0.769527 -9.443658 0.5680051 0.3272131 -0.7551832 182 187 28 255 
0.1460476 1.182807 -9.443658 0.3190014 0.02884968 -0.947315 210 185 22 255 
0.3246708 0.7742562 -9.443658 0.5284843 0.4138945 -0.7412122 183 188 26 255 
0.1409903 1.193108 -9.443658 0.3692838 0.318295 -0.8731081 215 187 21 255 
0.3153591 0.7848334 -9.443658 0.5069577 0.4519443 -0.7339893 184 189 25 255 
0.1357546 1.198114 -9.443658 0.4574829 0.3555019 -0.8150631 220 187 19 255 
0.2815695 0.8307528 -9.443658 0.5901745 0.008551251 -0.8072304 189 180 43 255 
0.1256838 1.210033 -9.443658 0.3123024 0.4997723 -0.8078953 220 187 19 255 
0.2835188 0.8460603 -9.443658 0.5511641 -0.04345362 -0.8332646 186 180 44 255 
0.2834072 0.8613667 -9.443658 0.5524842 0.05004025 -0.83202 187 182 42 255 
0.2806625 0.8766732 -9.443658 0.6175315 0.07972053 -0.7824956 190 183 38 255 
0.277648 0.5246196 -9.443658 0.4355738 -0.5779344 -0.6901214 182 177 47 255 
0.2787514 0.9066691 -9.443658 0.6783387 0.1015289 -0.7277008 194 183 35 255 
0.2787514 0.5254512 -9.443658 0.6088681 -0.4915664 -0.6226092 181 177 47 255 
0.2785797 0.9072871 -9.443658 0.6295091 0.1236213 -0.7670959 195 183 35 255 
0.2860022 0.5399261 -9.443658 0.7388675 -0.2139886 -0.638971 171 174 54 255 
0.2802067 0.8919797 -9.443658 0.6630017 0.04700533 -0.7471407 191 183 36 255 
0.2860451 0.5552325 -9.443658 0.6922959 -0.1106642 -0.7130777 179 174 48 255 
0.2772694 0.9225936 -9.443658 0.663548 0.02113621 -0.7478351 204 184 30 255 
0.2905884 0.570539 -9.443658 0.7062904 -0.1892589 -0.6821547 171 173 50 255 
0.277895 0.9379001 -9.443658 0.6607131 0.05096722 -0.7489062 206 183 29 255 
0.2940578 0.5822415 -9.443658 0.6477379 -0.1659745 -0.7435645 164 171 55 255 
0.2744236 0.9532065 -9.443658 0.5852591 0.2118922 -0.7826707 206 182 30 255 
0.2946577 0.5858464 -9.443658 0.6917779 -0.1097092 -0.7137277 161 171 56 255 
0.2679567 0.968514 -9.443658 0.5726781 0.2026551 -0.7943367 208 182 28 255 
0.2966061 0.6011529 -9.443658 0.6122559 -0.05860377 -0.7884849 164 173 56 255 
0.2641516 0.9838204 -9.443658 0.6680695 0.1241248 -0.733673 210 182 27 255 
0.2957134 0.6164594 -9.443658 0.4520325 0.01733504 -0.8918331 185 183 38 255 
0.2634439 0.9882379 -9.443658 0.7108797 0.1219679 -0.6926571 209 182 27 255 
0.2966375 0.6317658 -9.443658 0.3091222 -0.06619264 -0.948716 185 182 39 255 
0.2613163 0.9991269 -9.443658 0.7972618 0.1165298 -0.592279 209 182 27 255 
0.3022966 0.6470733 -9.443658 0.2968293 -0.05870863 -0.9531242 193 188 27 255 
0.2600088 1.014433 -9.443658 0.8041453 0.0972144 -0.5864297 208 181 28 255 
0.3044033 0.6623797 -9.443658 0.2267571 -0.08447279 -0.9702812 192 188 27 255 
0.2573681 1.029741 -9.443658 0.7189059 0.06983932 -0.6915901 209 180 31 255 
0.3088703 0.6776862 -9.443658 0.274238 -0.1067376 -0.9557199 192 185 29 255 
0.2569828 1.045047 -9.443658 0.6708266 -0.1052831 -0.7341031 209 180 32 255 
0.262248 1.060354 -9.443658 0.8386128 0.2428306 -0.4876083 210 179 31 255 
0.3093643 0.6929927 -9.448282 0.3002344 -0.3665478 -0.8806259 190 184 32 255 
0.2481375 0.968514 -9.457597 0.589514 0.02282236 -0.8074358 206 183 28 255 
0.2940578 0.6929927 -9.454245 0.3452342 -0.3525611 -0.8697782 194 187 26 255 
0.1256838 1.121581 -9.45753 0.4455056 0.3216689 -0.8354962 210 186 23 255 
0.3093643 0.7083001 -9.455854 0.2677703 -0.4101573 -0.87182 190 183 34 255 
0.2481375 1.014433 -9.457661 0.6767614 0.1602799 -0.7185433 208 182 25 255 
0.3246708 0.7083001 -9.450953 0.3495705 -0.3337874 -0.875435 184 181 39 255 
0.2481375 1.029741 -9.452722 0.7009565 0.1105013 -0.7045918 208 181 29 255 
0.3399782 0.7083001 -9.444505 0.3556756 -0.2031492 -0.9122638 181 180 41 255 
0.2481375 1.045047 -9.451283 0.7295443 -0.1148043 -0.6742293 208 180 32 255 
0.3246708 0.7236066 -9.455475 0.4480904 -0.08219426 -0.8902017 178 180 45 255 
0.2481375 1.060354 -9.458597 0.5121501 0.2316965 -0.8270544 209 179 30 255 
0.3399782 0.7236066 -9.446771 0.4507122 -0.01680782 -0.8925111 178 179 44 255 
0.1409903 1.090968 -9.45826 0.3582047 0.3773127 -0.854005 207 183 25 255 
0.3246708 0.7389131 -9.45388 0.5018755 0.1155498 -0.8571869 189 183 38 255 
0.1562977 1.090968 -9.45109 0.3122566 0.4815108 -0.8189281 201 184 25 255 
0.3399782 0.7389131 -9.444411 0.4615603 0.1721783 -0.8702394 186 183 35 255 
0.1716042 1.090968 -9.446368 0.1395978 0.5699043 -0.8097664 196 185 24 255 
0.3246708 0.7542195 -9.45164 0.5528367 0.1904061 -0.8112442 183 184 36 255 
0.1869106 1.090968 -9.445816 -0.04540285 0.6365355 -0.7699098 188 187 21 255 
0.1409903 1.106274 -9.452316 0.4508661 0.2504143 -0.8567453 212 184 25 255 
0.3093643 0.769527 -9.456408 0.4527768 0.3630089 -0.8143818 188 189 27 255 
0.1562977 1.106274 -9.444566 0.4182551 0.296151 -0.8586951 206 185 25 255 
0.2940578 0.7848334 -9.458728 0.5108657 0.3673247 -0.7772316 187 187 31 255 
0.1409903 1.121581 -9.449251 0.420499 0.2084551 -0.8830215 215 184 24 255 
0.3093643 0.7848334 -9.448068 0.5153111 0.4413105 -0.7346426 185 188 28 255 
0.2022171 1.090968 -9.448185 0.00372553 0.6455664 -0.7636951 220 184 22 255 
0.2787514 0.8001399 -9.454893 0.3682677 0.4409113 -0.8185207 180 183 39 255 
0.232831 1.07566 -9.454297 0.5211098 0.6374384 -0.5675535 213 183 23 255 
0.2634439 0.8154464 -9.457647 0.5579495 0.09413972 -0.8245181 186 181 40 255 
0.2787514 0.8154464 -9.447307 0.5631362 0.2260924 -0.7948332 189 182 39 255 
0.1103773 1.136887 -9.457939 0.4610295 0.3625537 -0.8099424 218 187 22 255 
0.2940578 0.8001399 -9.448205 0.3997846 0.6088143 -0.6852134 185 185 34 255 
0.1256838 1.136887 -9.450483 0.3711605 0.1892797 -0.9090726 213 186 21 255 
0.3246708 0.769527 -9.446098 0.5452374 0.3353891 -0.7682645 183 188 27 255 
0.1103773 1.152194 -9.454432 0.344385 0.03125714 -0.9383081 218 189 21 255 
0.1256838 1.152194 -9.451355 0.2965939 -0.07611466 -0.9519657 214 187 21 255 
0.2634439 0.8307528 -9.45735 0.6238639 -0.002267531 -0.7815297 188 181 40 255 
0.1103773 1.167501 -9.45565 0.2308735 -0.03965895 -0.9721752 216 192 20 255 
0.2787514 0.8307528 -9.445739 0.5989794 0.0106969 -0.800693 189 180 43 255 
0.1256838 1.167501 -9.453115 0.3196845 -0.0005788772 -0.947524 214 188 21 255 
0.2634439 0.8460603 -9.457888 0.5863185 -0.02124375 -0.8098021 171 176 51 255 
0.1103773 1.182807 -9.456278 0.2795361 0.0974944 -0.9551725 207 186 25 255 
0.2787514 0.8460603 -9.446896 0.5776853 -0.02912733 -0.8157397 186 181 44 255 
0.1256838 1.182807 -9.450691 0.3517404 0.1164435 -0.928827 221 187 19 255 
0.2634439 0.8613667 -9.458354 0.6095823 0.006391418 -0.7926971 184 181 42 255 
0.09507084 1.213421 -9.457192 0.4124113 0.2371988 -0.8795758 213 187 24 255 
0.2787514 0.8613667 -9.446954 0.5915408 0.03916065 -0.8053236 188 182 41 255 
0.1409903 1.136887 -9.445417 0.2968855 0.1406905 -0.944492 211 186 21 255 
0.2634439 0.8766732 -9.457627 0.6260146 0.03194884 -0.7791566 190 184 37 255 
0.1409903 1.152194 -9.445014 0.4679274 -0.02556796 -0.883397 211 189 22 255 
0.2787514 0.8766732 -9.445082 0.6149829 0.05556434 -0.7865804 191 183 37 255 
0.1409903 1.167501 -9.445987 0.5024604 0.008387649 -0.8645595 213 189 21 255 
0.2634439 0.8919797 -9.45735 0.60381 -0.008281584 -0.7970852 190 183 36 255 
0.1409903 1.182807 -9.444947 0.3138864 0.07012723 -0.9468672 212 187 22 255 
0.2787514 0.8919797 -9.444843 0.6316928 0.03725042 -0.7743233 191 183 36 255 
0.1256838 1.198114 -9.450555 0.3450073 0.2367656 -0.9082467 220 187 19 255 
0.2634439 0.9072871 -9.458315 0.7732521 0.0295259 -0.633411 198 184 33 255 
0.2634439 0.9225936 -9.456014 0.7532003 0.05491579 -0.6554949 202 184 31 255 
0.2634439 0.9379001 -9.455463 0.643053 0.1175415 -0.7567475 204 184 27 255 
0.2634439 0.5399261 -9.457272 0.3201144 -0.2940193 -0.9005995 167 170 60 255 
0.2787514 0.5399261 -9.449663 0.6187869 -0.1714761 -0.7666152 173 175 52 255 
0.2634439 0.9532065 -9.451239 0.5640279 0.2514853 -0.7865289 201 182 29 255 
0.2787514 0.5552325 -9.4494 0.7436046 -0.1034206 -0.6605728 181 178 43 255 
0.2634439 0.968514 -9.446311 0.5535106 0.1622271 -0.8168895 207 182 27 255 
0.2787514 0.570539 -9.454373 0.7144288 -0.08951362 -0.6939589 177 178 45 255 
0.2634439 0.9838204 -9.444324 0.6891052 0.09504507 -0.7184014 210 182 27 255 
0.2787514 0.5858464 -9.455007 0.508142 0.003990233 -0.8612641 186 183 34 255 
0.2787514 0.6011529 -9.454453 0.4496342 0.02323611 -0.8929105 185 183 40 255 
0.2940578 0.5858464 -9.444235 0.6324211 -0.09894037 -0.7682801 161 171 56 255 
0.2940578 0.6011529 -9.445731 0.5751593 -0.004710635 -0.8180279 165 174 55 255 
0.2787514 0.6164594 -9.453851 0.5019157 0.03504204 -0.8642064 181 181 42 255 
0.2787514 0.6317658 -9.452978 0.5167567 0.02663217 -0.855718 179 181 42 255 
0.2940578 0.6164594 -9.444569 0.4955103 0.0414272 -0.8676136 185 183 38 255 
0.2940578 0.6317658 -9.444431 0.3923949 -0.03070087 -0.9192844 184 183 38 255 
0.2787514 0.6470733 -9.452345 0.5001838 0.0003320483 -0.8659192 186 186 32 255 
0.2787514 0.6623797 -9.452513 0.5444842 -0.09861774 -0.8329535 178 182 40 255 
0.2940578 0.6470733 -9.445391 0.3263538 -0.02290222 -0.9449703 188 187 31 255 
0.2940578 0.6623797 -9.445393 0.2963714 -0.08525498 -0.95126 184 186 33 255 
0.2787514 0.6776862 -9.456316 0.5768138 -0.207641 -0.790045 172 179 46 255 
0.2940578 0.6776862 -9.448041 0.3536534 -0.2329683 -0.9059001 184 185 33 255 
0.3663063 0.6623797 -9.428351 0.2490724 -0.1080067 -0.9624435 187 184 37 255 
0.232831 1.088153 -9.428351 0.4074386 0.7870778 -0.4631439 220 182 24 255 
0.3705912 0.6739383 -9.428351 0.2951117 -0.09522697 -0.9507055 200 187 27 255 
0.2276011 1.090968 -9.428351 0.4025126 0.7730325 -0.4903105 222 182 24 255 
0.3705912 0.7185845 -9.428351 0.600893 0.1417687 -0.7866571 182 190 24 255 
0.2481375 1.08052 -9.428351 0.4632646 0.8143627 -0.3495703 211 183 24 255 
0.3690538 0.7236066 -9.428351 0.6186455 0.2069997 -0.7579109 182 191 23 255 
0.2022171 1.105189 -9.428351 0.5852828 0.7571674 -0.2900718 222 182 24 255 
0.3638325 0.7389131 -9.428351 0.6375127 0.2537395 -0.7274571 192 190 22 255 
0.2010746 1.106274 -9.428351 0.6409629 0.5884111 -0.4928885 220 183 24 255 
0.355772 0.7542195 -9.428351 0.6273314 0.3121271 -0.7134648 195 188 25 255 
0.2175245 1.095803 -9.428351 0.3998012 0.7944179 -0.4572299 229 180 25 255 
0.189126 1.121581 -9.428351 0.5273907 0.2825511 -0.801264 214 185 23 255 
0.3718319 0.6776862 -9.428351 0.3464175 -0.09262127 -0.9334968 200 187 26 255 
0.3740826 0.6929927 -9.428351 0.4979344 0.01485881 -0.8670874 195 185 31 255 
0.1869106 1.127416 -9.428351 0.4442235 0.1401173 -0.8848913 210 183 26 255 
0.373004 0.7083001 -9.428351 0.6013917 0.1032396 -0.7922561 182 189 25 255 
0.1849451 1.136887 -9.428351 0.3973463 0.1244805 -0.9091868 205 181 30 255 
0.177104 1.152194 -9.428351 0.3555236 0.1954744 -0.9139982 198 187 24 255 
0.3093643 0.8124108 -9.428351 0.5327847 0.3915381 -0.7502256 184 183 37 255 
0.1716042 1.163117 -9.428351 0.4336311 0.1359669 -0.8907734 197 188 23 255 
0.3080921 0.8154464 -9.428351 0.6095817 0.224585 -0.7602445 182 181 41 255 
0.1706972 1.167501 -9.428351 0.5130147 0.116535 -0.8504325 197 188 23 255 
0.3399782 0.7797227 -9.428351 0.582791 0.4325582 -0.6879303 184 186 29 255 
0.1669102 1.182807 -9.428351 0.7042243 0.2302885 -0.6715917 202 188 23 255 
0.3359594 0.7848334 -9.428351 0.5468414 0.4606157 -0.6991407 185 187 27 255 
0.1562977 1.200395 -9.428351 0.5899377 0.562366 -0.5794117 199 185 27 255 
0.3552847 0.7552218 -9.428351 0.5985194 0.3373011 -0.7266378 195 188 25 255 
0.1450138 1.213421 -9.428351 0.4996934 0.4438031 -0.7438719 190 183 35 255 
0.3470392 0.769527 -9.428351 0.6068321 0.3741923 -0.7012382 184 185 31 255 
0.1586809 1.198114 -9.428351 0.6804159 0.4626368 -0.5683321 198 185 27 255 
0.3246708 0.7964435 -9.428351 0.4823427 0.5382872 -0.6910806 192 193 20 255 
0.3204088 0.8001399 -9.428351 0.5123156 0.4922019 -0.7037542 192 193 19 255 
0.3026705 0.8307528 -9.428351 0.6086202 0.03621028 -0.792635 184 180 41 255 
0.3053961 0.8460603 -9.428351 0.6849182 -0.0003676365 -0.7286199 186 179 41 255 
0.2787514 0.5184855 -9.428351 0.6476802 -0.7493109 -0.137999 192 181 40 255 
0.2859049 0.5246196 -9.428351 0.7258929 -0.6477259 -0.2313667 178 175 51 255 
0.3034754 0.8613667 -9.428351 0.7148557 0.1754522 -0.6769032 185 179 43 255 
0.2940578 0.5375609 -9.428351 0.7949121 -0.4724202 -0.380702 173 170 54 255 
0.2965918 0.8766732 -9.428351 0.7276025 0.1657499 -0.6656738 189 179 42 255 
0.2950659 0.5399261 -9.428351 0.8512559 -0.2859909 -0.439969 173 170 54 255 
0.2953405 0.8919797 -9.428351 0.7451434 0.06095928 -0.6641124 191 179 40 255 
0.3005066 0.5552325 -9.428351 0.7195223 -0.2816672 -0.6347844 177 171 52 255 
0.2941809 0.9072871 -9.428351 0.7441993 0.06413829 -0.6648711 193 180 39 255 
0.3058033 0.570539 -9.428351 0.6904713 -0.2114201 -0.6917738 171 171 56 255 
0.2940578 0.9085727 -9.428351 0.7133844 0.0842392 -0.6956913 193 180 39 255 
0.3093643 0.5855412 -9.428351 0.7730159 -0.1779695 -0.6089116 172 172 54 255 
0.2920303 0.9225936 -9.428351 0.7146243 0.06870623 -0.6961261 196 181 37 255 
0.3094292 0.5858464 -9.428351 0.8321166 -0.1976035 -0.5182036 173 173 54 255 
0.291297 0.9379001 -9.428351 0.7398261 0.05677292 -0.6703985 199 181 37 255 
0.3134508 0.6011529 -9.428351 0.6835788 -0.2976567 -0.6664237 168 176 54 255 
0.2895775 0.9532065 -9.428351 0.7388646 0.17085 -0.6518355 206 182 32 255 
0.3244438 0.6164594 -9.428351 0.4886833 -0.3823462 -0.7842194 184 180 43 255 
0.2842245 0.968514 -9.428351 0.7169769 0.2148466 -0.6631629 208 181 31 255 
0.3246708 0.6166806 -9.428351 0.3978523 -0.3654612 -0.8415174 184 180 43 255 
0.2787514 0.994103 -9.428351 0.6764632 0.1031734 -0.7292138 205 179 34 255 
0.33494 0.6317658 -9.428351 0.3582438 -0.2941258 -0.8860877 187 182 39 255 
0.2774324 0.9991269 -9.428351 0.5564572 0.1783378 -0.8115116 204 179 34 255 
0.2803316 0.9838204 -9.428351 0.7206129 0.1553466 -0.6757104 208 181 31 255 
0.3399782 0.6367126 -9.428351 0.2458685 -0.3210519 -0.9145898 192 184 35 255 
0.354454 0.6470733 -9.428351 0.2390377 -0.2915491 -0.9262074 198 187 31 255 
0.2716255 1.014433 -9.428351 0.6060225 0.09530158 -0.7897179 204 179 35 255 
0.3552847 0.6479383 -9.428351 0.1867095 -0.1999541 -0.9618514 196 186 32 255 
0.2719965 1.029741 -9.428351 0.6039344 -0.05027989 -0.7954466 207 179 34 255 
0.2753983 1.045047 -9.428351 0.5451139 0.01933426 -0.838139 206 177 36 255 
0.2705193 1.060354 -9.428351 0.7074354 0.3473153 -0.6155545 208 177 35 255 
0.2634439 1.069643 -9.428351 0.6066821 0.6584058 -0.4454645 208 177 35 255 
0.2560816 1.07566 -9.428351 0.5831969 0.7321403 -0.3519262 208 177 35 255 
0.1562977 1.121581 -9.44207 0.3910267 0.1147407 -0.9131991 210 184 25 255 
0.3093643 0.6623797 -9.442477 0.2331873 -0.09586138 -0.9676954 195 188 25 255 
0.1716042 1.106274 -9.439782 0.2353474 0.2726632 -0.9328807 203 185 24 255 
0.3093643 0.6776862 -9.443519 0.2466423 -0.1017087 -0.9637547 192 185 29 255 
0.3246708 0.6623797 -9.438681 0.2504433 -0.1654247 -0.9538935 195 188 26 255 
0.1869106 1.106274 -9.436553 0.2326609 0.4842552 -0.843425 191 187 22 255 
0.3246708 0.6776862 -9.439989 0.2135245 -0.1449958 -0.9661177 200 188 22 255 
0.1716042 1.121581 -9.436467 0.3419898 0.1959844 -0.9190393 210 187 23 255 
0.3399782 0.6623797 -9.43496 0.2261344 -0.1765006 -0.9579722 192 187 30 255 
0.1869106 1.121581 -9.429954 0.4725452 0.2930056 -0.8311731 214 185 23 255 
0.3399782 0.6776862 -9.436895 0.217626 -0.1540055 -0.9638056 185 181 37 255 
0.2175245 1.090968 -9.442896 0.450369 0.8397723 -0.303233 221 184 22 255 
0.3246708 0.6929927 -9.443505 0.2164212 -0.3105223 -0.9256013 195 185 28 255 
0.2481375 1.07566 -9.442622 0.4489651 0.8453089 -0.2896261 215 183 23 255 
0.3399782 0.6929927 -9.439959 0.2148301 -0.2387948 -0.9470086 182 180 39 255 
0.1562977 1.136887 -9.440264 0.3630481 0.1542151 -0.9189199 208 189 21 255 
0.3552847 0.6623797 -9.431106 0.2367763 -0.1598915 -0.9583171 185 181 41 255 
0.1562977 1.152194 -9.437301 0.4274746 0.1026574 -0.8981798 208 191 22 255 
0.3552847 0.6776862 -9.433183 0.2643903 -0.1482113 -0.9529592 187 182 36 255 
0.1716042 1.136887 -9.433787 0.38729 0.1659961 -0.9068913 209 189 21 255 
0.3705912 0.6776862 -9.428789 0.3027901 -0.1025696 -0.9475219 201 187 26 255 
0.1716042 1.152194 -9.430528 0.3795523 0.1867318 -0.9061298 198 189 22 255 
0.3552847 0.6929927 -9.436466 0.3287517 -0.1651298 -0.929868 181 179 42 255 
0.3705912 0.6929927 -9.430316 0.4198391 -0.04306456 -0.9065763 194 184 32 255 
0.1562977 1.167501 -9.436745 0.5159348 -0.01190575 -0.8565452 207 190 20 255 
0.1562977 1.182807 -9.440026 0.5562438 0.07838254 -0.8273143 209 185 22 255 
0.3552847 0.7083001 -9.438846 0.4405659 -0.08245066 -0.893926 178 178 45 255 
0.3705912 0.7083001 -9.430042 0.5194201 0.05872438 -0.8524988 182 189 26 255 
0.1409903 1.198114 -9.440426 0.4421163 0.4815816 -0.7567116 215 187 21 255 
0.3552847 0.7236066 -9.439165 0.5301012 0.09093615 -0.8430441 183 182 37 255 
0.1562977 1.198114 -9.432096 0.6156186 0.4941167 -0.6138912 208 184 23 255 
0.3399782 0.7542195 -9.440849 0.5156769 0.2828828 -0.8087365 177 179 42 255 
0.1256838 1.213421 -9.441469 0.469378 0.4096359 -0.7822293 219 187 20 255 
0.3552847 0.7389131 -9.436019 0.5781697 0.2323925 -0.7821212 194 191 21 255 
0.1409903 1.213421 -9.430972 0.4963515 0.4352379 -0.7511345 198 184 31 255 
0.3552847 0.7542195 -9.428824 0.6203819 0.3341787 -0.7095428 195 188 25 255 
0.2787514 0.5246196 -9.442352 0.7469751 -0.5456964 -0.3797941 182 177 47 255 
0.2940578 0.5399261 -9.43084 0.8516319 -0.275604 -0.4458314 173 170 54 255 
0.3093643 0.8001399 -9.43703 0.5089696 0.5056539 -0.696609 193 194 18 255 
0.2940578 0.8154464 -9.437372 0.5100129 0.3107702 -0.8020653 189 182 39 255 
0.2940578 0.5552325 -9.434309 0.7297444 -0.1744927 -0.6610789 179 171 50 255 
0.2940578 0.570539 -9.439155 0.7114136 -0.2387903 -0.6609614 171 172 51 255 
0.3399782 0.769527 -9.434637 0.5901789 0.3550579 -0.7249985 180 183 34 255 
0.3246708 0.7848334 -9.437345 0.5255157 0.4767861 -0.7046334 187 190 22 255 
0.3093643 0.5858464 -9.428461 0.7684151 -0.2120518 -0.6037983 173 173 54 255 
0.3093643 0.6011529 -9.43279 0.6924182 -0.1877102 -0.6966506 166 175 55 255 
0.2940578 0.8307528 -9.434492 0.572391 0.004637029 -0.8199677 187 180 42 255 
0.3093643 0.6164594 -9.437355 0.4822643 -0.1614065 -0.861028 182 180 44 255 
0.2940578 0.8460603 -9.437217 0.5710109 -0.05309429 -0.8192238 186 180 43 255 
0.3093643 0.6317658 -9.439295 0.3702283 -0.1076203 -0.9226857 187 181 40 255 
0.2940578 0.8613667 -9.436965 0.6208832 0.1180921 -0.7749571 187 180 43 255 
0.3246708 0.6317658 -9.432289 0.3967139 -0.1565227 -0.9044992 186 181 41 255 
0.2940578 0.8766732 -9.431499 0.7271792 0.1470108 -0.670521 189 180 41 255 
0.3093643 0.6470733 -9.44056 0.3662492 -0.1050134 -0.9245722 193 188 27 255 
0.2787514 0.9072871 -9.44354 0.6347972 0.1039592 -0.7656533 195 183 35 255 
0.3246708 0.6470733 -9.434098 0.3049211 -0.2023645 -0.9306298 189 182 38 255 
0.2940578 0.8919797 -9.429942 0.740458 0.06578233 -0.6688756 192 180 40 255 
0.3399782 0.6470733 -9.431591 0.187167 -0.2490568 -0.9502311 199 188 29 255 
0.2940578 0.9072871 -9.4285 0.7352212 0.07068504 -0.6741316 193 180 39 255 
0.2787514 0.9225936 -9.442318 0.6996818 0.02704923 -0.7139424 204 184 30 255 
0.2787514 0.9379001 -9.442824 0.7253411 0.04125913 -0.6871521 206 183 29 255 
0.2787514 0.9532065 -9.440473 0.6595684 0.1972834 -0.7252922 207 182 30 255 
0.2787514 0.968514 -9.434446 0.6842732 0.2273119 -0.6928921 208 181 30 255 
0.2787514 0.9838204 -9.429907 0.6893798 0.1515158 -0.7083774 208 181 30 255 
0.2634439 0.9991269 -9.440543 0.7506598 0.1594439 -0.6411611 208 182 27 255 
0.2634439 1.014433 -9.437377 0.8098809 0.07630233 -0.5816107 208 181 30 255 
0.2634439 1.029741 -9.436531 0.7408552 0.008444914 -0.6716117 209 180 32 255 
0.2634439 1.045047 -9.437335 0.7110212 -0.04814018 -0.7015208 210 179 33 255 
0.2634439 1.060354 -9.43876 0.8545703 0.3248454 -0.4051977 210 179 32 255 
0.1256838 1.235877 -9.428351 0.5357696 0.3869917 -0.7504588 215 186 22 255 
0.1203775 1.244034 -9.428351 0.5693541 0.3864446 -0.7256008 207 183 29 255 
-0.7032833 0.7236066 -9.428351 -0.9523336 0.01892596 0.304471 236 81 57 255 
-0.7034721 0.7542195 -9.428351 -0.9178433 -0.3328677 0.2162473 232 82 57 255 
0.103097 1.274648 -9.428351 0.6804932 0.3860449 -0.6228149 211 183 27 255 
0.09507084 1.286565 -9.428351 0.6700761 0.5368567 -0.5126238 212 183 27 255 
0.08047771 1.305261 -9.428351 0.6566753 0.6505305 -0.3815596 205 178 33 255 
-0.8233318 0.7229171 -9.428351 0.7622362 0.5914447 0.2630385 224 86 56 255 
-0.8238668 0.7236066 -9.428351 0.8300385 0.4784278 0.286606 224 86 56 255 
-0.836113 0.7542195 -9.428351 0.8301854 0.2619816 0.4920954 225 82 59 255 
-0.9743023 0.8460603 -9.428351 -0.5151534 0.3785654 0.7689638 230 124 39 255 
-0.9763985 0.8439498 -9.428351 -0.4284275 0.5894243 0.6848569 230 124 40 255 
-0.9601851 0.8766732 -9.428351 -0.6566955 0.07095191 0.7508108 229 114 42 255 
-0.8412809 0.7848334 -9.428351 0.6492803 -0.2649158 0.71292 215 82 62 255 
-0.8233318 0.8109822 -9.428351 0.5222313 -0.6595633 0.5406021 229 69 61 255 
-0.8114233 0.8154464 -9.428351 0.2749616 -0.8770784 0.3938653 215 91 59 255 
-0.7314911 0.7984099 -9.428351 -0.7243232 -0.6787102 0.1212779 232 83 57 255 
-0.7599049 0.8154464 -9.428351 -0.338016 -0.9360285 0.0979588 227 88 56 255 
-0.7927179 0.8192878 -9.428351 -0.03725052 -0.9783544 0.2035562 225 88 56 255 
-0.963212 0.9072871 -9.428351 -0.8560503 -0.1134922 0.5042792 229 123 40 255 
-0.9667807 0.9379001 -9.428351 -0.9428572 0.1222908 0.309944 227 127 42 255 
0.09507084 1.244034 -9.449195 0.6131556 0.2335424 -0.754651 218 186 24 255 
0.06445694 1.305261 -9.457889 0.7162169 0.5863007 -0.3785298 208 180 31 255 
0.09507084 1.274648 -9.438621 0.7354068 0.3444673 -0.5835402 214 184 25 255 
-0.8233318 0.7236066 -9.430169 0.8726023 0.3632729 0.3264935 225 84 56 255 
-0.8233318 0.7542195 -9.45337 0.8805755 0.07515585 0.4679086 231 81 56 255 
-0.9763985 0.8460603 -9.429931 -0.4644747 0.4300607 0.7741518 230 123 40 255 
-0.9763985 0.8766732 -9.443306 -0.7131153 0.236533 0.6599384 229 122 40 255 
-0.8233318 0.7848334 -9.447627 0.7037052 -0.3145542 0.6370672 231 67 61 255 
-0.7927179 0.8154464 -9.439479 0.08736901 -0.9033101 0.4199972 226 86 57 255 
-0.7314911 0.7848334 -9.45659 -0.7428698 -0.5605458 0.3659685 233 81 57 255 
-0.762105 0.8154464 -9.431949 -0.2410094 -0.9375507 0.2508252 227 87 56 255 
-0.9763985 0.9072871 -9.45028 -0.882032 0.1052001 0.4592957 229 121 41 255 
0.1130009 1.198916 -9.452222 0.3246731 0.2137156 -0.9213647 213 187 23 255 
0.08963871 1.228728 -9.456656 0.4921928 0.1636211 -0.8549704 216 186 24 255 
0.1343422 1.219035 -9.432285 0.5064778 0.4319201 -0.7462743 206 185 27 255 
0.3209057 0.8460603 -9.413045 0.5803143 0.1374869 -0.8027034 183 179 39 255 
0.2149916 1.121581 -9.413045 0.4820979 0.1040743 -0.8699139 197 181 36 255 
0.3172607 0.8613667 -9.413045 0.6248267 0.1747523 -0.7609555 174 175 43 255 
0.2142773 1.136887 -9.413045 0.5836232 0.1014266 -0.8056653 204 180 33 255 
0.3123446 0.8766732 -9.413045 0.5925088 0.1403578 -0.7932421 181 177 44 255 
0.2094393 1.152194 -9.413045 0.5563695 0.2267773 -0.7993904 197 179 35 255 
0.2022171 1.166187 -9.413045 0.5252656 0.2743644 -0.8054938 194 182 32 255 
0.3754435 0.7542195 -9.413045 0.5814063 0.315156 -0.7500956 179 177 46 255 
0.2015619 1.167501 -9.413045 0.4958161 0.264561 -0.8271481 193 182 32 255 
0.3705912 0.7619662 -9.413045 0.5472652 0.3206966 -0.7730812 185 180 37 255 
0.1907177 1.182807 -9.413045 0.371806 0.3850024 -0.8447091 176 181 41 255 
0.3093643 0.9021354 -9.413045 0.6852264 0.06931993 -0.7250238 193 178 39 255 
0.1869106 1.185291 -9.413045 0.3493552 0.458342 -0.8172354 179 182 37 255 
0.3089094 0.9072871 -9.413045 0.7094507 0.04950641 -0.7030142 194 178 39 255 
0.1723976 1.198114 -9.413045 0.4404007 0.2968942 -0.8472905 151 179 58 255 
0.3084288 0.9225936 -9.413045 0.6736981 0.01274981 -0.7388967 196 178 39 255 
0.1716042 1.200739 -9.413045 0.5588049 0.2405568 -0.7936432 151 179 58 255 
0.3084822 0.9379001 -9.413045 0.6101781 0.05865292 -0.7900903 201 180 33 255 
0.1656036 1.213421 -9.413045 0.5817465 0.2871234 -0.7610067 160 179 57 255 
0.3106709 0.8919797 -9.413045 0.6588555 0.08394349 -0.7475714 193 178 39 255 
0.2634439 0.5149627 -9.413045 0.02494751 -0.913893 0.4051878 199 183 35 255 
0.3055029 0.9532065 -9.413045 0.6112844 0.1675671 -0.773468 202 180 33 255 
0.2481375 0.5176816 -9.413045 0.01478656 -0.9680616 0.2502763 182 169 50 255 
0.2999258 0.968514 -9.413045 0.5922637 0.2212317 -0.7747775 200 179 34 255 
0.2787514 0.5185981 -9.413045 0.5087194 -0.8287644 0.2331396 197 181 37 255 
0.2940578 0.9821439 -9.413045 0.60663 0.3348611 -0.7210188 191 174 41 255 
0.2854843 0.5246196 -9.413045 0.5659065 -0.8224866 0.05714553 183 170 48 255 
0.2930059 0.9838204 -9.413045 0.7052448 0.1978834 -0.6807878 189 173 43 255 
0.2940578 0.5305533 -9.413045 0.6719311 -0.7240809 -0.1556135 181 169 49 255 
0.2940578 0.9969192 -9.413045 0.4495704 -0.2665629 -0.8525437 190 174 43 255 
0.303319 0.5399261 -9.413045 0.8028665 -0.5209031 -0.2899404 179 170 50 255 
0.296875 0.9991269 -9.413045 0.4772104 -0.1633774 -0.8634686 192 175 42 255 
0.3093643 0.5536942 -9.413045 0.9153707 -0.3874768 -0.1093536 179 169 54 255 
0.2994833 1.014433 -9.413045 0.5516946 0.03853235 -0.8331556 200 176 38 255 
0.3100014 0.5552325 -9.413045 0.9299427 -0.3532489 -0.1020869 179 169 54 255 
0.2951031 1.029741 -9.413045 0.6292205 0.09070649 -0.7719157 201 176 37 255 
0.3153162 0.570539 -9.413045 0.8576277 -0.3355182 -0.3897464 173 172 54 255 
0.2940578 1.044627 -9.413045 0.6149063 0.1260714 -0.7784576 202 178 34 255 
0.3194637 0.5858464 -9.413045 0.7246469 -0.2546911 -0.6403276 177 172 54 255 
